ply
format ascii 1.0
element vertex 568
property float x
property float y
property float z
end_header
-0.1925978660583496 -0.32206419110298157 1.8193449974060059
-0.19259729981422424 -0.32201898097991943 1.8193408250808716
-0.1925870031118393 -0.32211124897003174 1.8193573951721191
-0.19258680939674377 -0.32211312651634216 1.8193576335906982
-0.19258596003055573 -0.3221118748188019 1.819358468055725
-0.19258548319339752 -0.32211288809776306 1.8193585872650146
-0.19257323443889618 -0.32212355732917786 1.819368839263916
-0.19257287681102753 -0.3221215009689331 1.8193689584732056
-0.1925719678401947 -0.3221474885940552 1.8193724155426025
-0.19257186353206635 -0.32214030623435974 1.8193719387054443
-0.19257164001464844 -0.32214245200157166 1.8193721771240234
-0.19257022440433502 -0.3219599425792694 1.819356083869934
-0.19257096946239471 -0.3221391439437866 1.819372534751892
-0.19257093966007233 -0.3221436142921448 1.8193727731704712
-0.19256988167762756 -0.3219575881958008 1.819355845451355
-0.1925705373287201 -0.3221382200717926 1.8193731307983398
-0.19256752729415894 -0.3219013512134552 1.8193528652191162
-0.19256752729415894 -0.32190781831741333 1.8193541765213013
-0.19256816804409027 -0.321949303150177 1.8193628787994385
-0.19256816804409027 -0.321949303150177 1.8193628787994385
-0.1925680786371231 -0.3219512403011322 1.8193631172180176
-0.19256754219532013 -0.3219492733478546 1.8193632364273071
-0.19256754219532013 -0.3219492733478546 1.8193632364273071
-0.19256743788719177 -0.32195112109184265 1.8193634748458862
-0.19256742298603058 -0.3219432234764099 1.819362998008728
-0.19256742298603058 -0.3219432234764099 1.819362998008728
-0.192567378282547 -0.32195013761520386 1.8193633556365967
-0.19256727397441864 -0.322000652551651 1.8193695545196533
-0.19256727397441864 -0.322000652551651 1.8193695545196533
-0.1925668865442276 -0.3219490945339203 1.8193635940551758
-0.19256658852100372 -0.321926087141037 1.8193600177764893
-0.19256681203842163 -0.3219454288482666 1.8193633556365967
-0.19256681203842163 -0.3219454288482666 1.8193633556365967
-0.1925671398639679 -0.32200297713279724 1.8193696737289429
-0.19256672263145447 -0.3219415843486786 1.8193632364273071
-0.19256602227687836 -0.32189542055130005 1.8193544149398804
-0.19256691634655 -0.3221447169780731 1.8193763494491577
-0.1925666630268097 -0.32194969058036804 1.8193638324737549
-0.1925666332244873 -0.32194703817367554 1.8193637132644653
-0.1925666332244873 -0.32194703817367554 1.8193637132644653
-0.19256643950939178 -0.32194915413856506 1.8193639516830444
-0.192566379904747 -0.32193899154663086 1.8193632364273071
-0.192566379904747 -0.32194143533706665 1.8193634748458862
-0.19256633520126343 -0.321945458650589 1.8193637132644653
-0.19256719946861267 -0.32216742634773254 1.8193833827972412
-0.19256609678268433 -0.32192718982696533 1.8193604946136475
-0.1925664246082306 -0.3221384286880493 1.8193761110305786
-0.19256609678268433 -0.3219423294067383 1.8193637132644653
-0.19256605207920074 -0.3219449818134308 1.8193638324737549
-0.19256605207920074 -0.3219449818134308 1.8193638324737549
-0.19256605207920074 -0.32203832268714905 1.8193693161010742
-0.19256623089313507 -0.32200831174850464 1.8193707466125488
-0.19256581366062164 -0.3219437003135681 1.8193639516830444
-0.19256582856178284 -0.3220575153827667 1.8193708658218384
-0.19256582856178284 -0.3220575153827667 1.8193708658218384
-0.19256576895713806 -0.3219422698020935 1.819364070892334
-0.1925657093524933 -0.32194632291793823 1.8193641901016235
-0.19256597757339478 -0.32200512290000916 1.8193703889846802
-0.1925656497478485 -0.32194119691848755 1.8193639516830444
-0.1925656497478485 -0.32194119691848755 1.8193639516830444
-0.19256573915481567 -0.3220762014389038 1.819372534751892
-0.19256561994552612 -0.32204878330230713 1.819370150566101
-0.19256563484668732 -0.32205548882484436 1.8193707466125488
-0.19256554543972015 -0.3219496011734009 1.8193645477294922
-0.19256551563739777 -0.3220366835594177 1.8193691968917847
-0.19256547093391418 -0.32194581627845764 1.819364309310913
-0.19256553053855896 -0.32206273078918457 1.8193715810775757
-0.192565456032753 -0.32204490900039673 1.819370150566101
-0.19256550073623657 -0.3220633566379547 1.8193717002868652
-0.19256550073623657 -0.3220633566379547 1.8193717002868652
-0.19256539642810822 -0.3219459354877472 1.8193644285202026
-0.19256538152694702 -0.3219389021396637 1.819364070892334
-0.19256539642810822 -0.32206735014915466 1.8193719387054443
-0.19256527721881866 -0.3219500780105591 1.8193649053573608
-0.19256527721881866 -0.3219500780105591 1.8193649053573608
-0.19256527721881866 -0.3219413459300995 1.819364309310913
-0.19256524741649628 -0.3220536708831787 1.8193708658218384
-0.1925652176141739 -0.3219437897205353 1.8193645477294922
-0.1925652176141739 -0.3219437897205353 1.8193645477294922
-0.1925651580095291 -0.3220423758029938 1.8193697929382324
-0.1925652027130127 -0.3220556080341339 1.8193711042404175
-0.1925654411315918 -0.32200512290000916 1.8193707466125488
-0.19256509840488434 -0.32206282019615173 1.8193718194961548
-0.192565456032753 -0.3221224546432495 1.819378137588501
-0.19256503880023956 -0.3220566213130951 1.819371223449707
-0.1925649344921112 -0.32194486260414124 1.8193646669387817
-0.19256485998630524 -0.3220508396625519 1.8193708658218384
-0.19256477057933807 -0.3220469355583191 1.8193706274032593
-0.19256474077701569 -0.3220389187335968 1.819369912147522
-0.19256474077701569 -0.3219412565231323 1.8193646669387817
-0.1925647109746933 -0.32193997502326965 1.8193645477294922
-0.1925647109746933 -0.3220536708831787 1.819371223449707
-0.19256465137004852 -0.3219490945339203 1.8193652629852295
-0.19256463646888733 -0.32194527983665466 1.8193649053573608
-0.19256488978862762 -0.3220021724700928 1.8193708658218384
-0.19256465137004852 -0.3220628499984741 1.8193720579147339
-0.19256460666656494 -0.32205185294151306 1.819370985031128
-0.19256485998630524 -0.3219987750053406 1.8193706274032593
-0.19256456196308136 -0.32205039262771606 1.819370985031128
-0.19256456196308136 -0.32194632291793823 1.81936514377594
-0.19256456196308136 -0.32194632291793823 1.81936514377594
-0.1925644725561142 -0.3220359981060028 1.819369912147522
-0.192564457654953 -0.3219430148601532 1.8193650245666504
-0.19256436824798584 -0.32194486260414124 1.8193650245666504
-0.19256441295146942 -0.3220633566379547 1.8193721771240234
-0.19256436824798584 -0.32194963097572327 1.8193655014038086
-0.19256436824798584 -0.32194963097572327 1.8193655014038086
-0.19256462156772614 -0.3220052123069763 1.8193711042404175
-0.19256463646888733 -0.32200610637664795 1.8193713426589966
-0.1925642341375351 -0.3220426142215729 1.8193703889846802
-0.1925642192363739 -0.32193896174430847 1.8193647861480713
-0.1925642192363739 -0.32193896174430847 1.8193647861480713
-0.19256417453289032 -0.3220389187335968 1.819370150566101
-0.1925642192363739 -0.3220638930797577 1.819372296333313
-0.19256412982940674 -0.32194915413856506 1.8193656206130981
-0.19256412982940674 -0.32194364070892334 1.8193652629852295
-0.19256408512592316 -0.32194530963897705 1.8193652629852295
-0.19256407022476196 -0.32204991579055786 1.819371223449707
-0.19256407022476196 -0.32204991579055786 1.819371223449707
-0.19256405532360077 -0.3219463527202606 1.8193655014038086
-0.19256405532360077 -0.32195013761520386 1.8193657398223877
-0.1925640106201172 -0.32205677032470703 1.8193719387054443
-0.19256427884101868 -0.3220086693763733 1.8193717002868652
-0.1925639808177948 -0.32194778323173523 1.8193657398223877
-0.1925639808177948 -0.32194778323173523 1.8193657398223877
-0.1925639510154724 -0.3220469057559967 1.8193711042404175
-0.1925639510154724 -0.3220469057559967 1.8193711042404175
-0.1925639510154724 -0.3220619261264801 1.8193724155426025
-0.19256414473056793 -0.32214027643203735 1.81937837600708
-0.19256383180618286 -0.3220389485359192 1.8193703889846802
-0.19256384670734406 -0.3219413161277771 1.819365382194519
-0.19256381690502167 -0.321944922208786 1.8193655014038086
-0.19256386160850525 -0.32207173109054565 1.819373369216919
-0.19256378710269928 -0.321946918964386 1.8193657398223877
-0.19256390631198883 -0.32199880480766296 1.8193713426589966
-0.19256362318992615 -0.3219422399997711 1.8193655014038086
-0.19256362318992615 -0.3219422399997711 1.8193655014038086
-0.19256383180618286 -0.32214388251304626 1.8193789720535278
-0.19256363809108734 -0.32207217812538147 1.819373607635498
-0.19256363809108734 -0.3220732510089874 1.8193737268447876
-0.19256363809108734 -0.3220732510089874 1.8193737268447876
-0.19256357848644257 -0.32206350564956665 1.8193727731704712
-0.19256357848644257 -0.32206350564956665 1.8193727731704712
-0.1925634890794754 -0.3220556378364563 1.8193721771240234
-0.19256341457366943 -0.3220372200012207 1.8193705081939697
-0.1925634890794754 -0.32206982374191284 1.819373369216919
-0.1925634890794754 -0.32206982374191284 1.819373369216919
-0.19256342947483063 -0.3220519423484802 1.8193717002868652
-0.19256342947483063 -0.3220519423484802 1.8193717002868652
-0.19256363809108734 -0.3220021724700928 1.8193715810775757
-0.19256336987018585 -0.3219466805458069 1.8193659782409668
-0.19256365299224854 -0.3220086097717285 1.8193721771240234
-0.1925632804632187 -0.3219422399997711 1.8193658590316772
-0.1925635039806366 -0.32200270891189575 1.8193717002868652
-0.1925632506608963 -0.32194942235946655 1.8193663358688354
-0.1925632804632187 -0.3220764100551605 1.8193740844726562
-0.19256319105625153 -0.32205772399902344 1.819372534751892
-0.19256311655044556 -0.32205280661582947 1.8193720579147339
-0.19256311655044556 -0.32205092906951904 1.8193719387054443
-0.19256305694580078 -0.321943074464798 1.8193659782409668
-0.19256305694580078 -0.321943074464798 1.8193659782409668
-0.1925629824399948 -0.32203909754753113 1.8193711042404175
-0.1925632655620575 -0.32200223207473755 1.8193718194961548
-0.19256293773651123 -0.32204949855804443 1.8193719387054443
-0.19256296753883362 -0.32194942235946655 1.8193665742874146
-0.19256293773651123 -0.32194235920906067 1.8193660974502563
-0.19256292283535004 -0.3219391703605652 1.8193659782409668
-0.19256317615509033 -0.32200518250465393 1.8193721771240234
-0.19256314635276794 -0.3220014274120331 1.8193719387054443
-0.19256286323070526 -0.32194578647613525 1.8193663358688354
-0.19256286323070526 -0.32194143533706665 1.819366216659546
-0.19256286323070526 -0.32194143533706665 1.819366216659546
-0.1925627589225769 -0.32203763723373413 1.819370985031128
-0.1925627440214157 -0.3219437003135681 1.8193663358688354
-0.19256262481212616 -0.3220389783382416 1.819371223449707
-0.19256265461444855 -0.3219490945339203 1.8193668127059937
-0.19256258010864258 -0.32194024324417114 1.819366455078125
-0.19256272912025452 -0.3220018148422241 1.8193721771240234
-0.19256271421909332 -0.322141170501709 1.8193798065185547
-0.19256244599819183 -0.32194846868515015 1.8193669319152832
-0.19256265461444855 -0.3220052421092987 1.8193727731704712
-0.19256240129470825 -0.32194334268569946 1.819366693496704
-0.19256237149238586 -0.32194551825523376 1.8193668127059937
-0.1925622969865799 -0.3219492435455322 1.8193671703338623
-0.1925622969865799 -0.3219492435455322 1.8193671703338623
-0.1925622522830963 -0.32195135951042175 1.8193671703338623
-0.19256235659122467 -0.32207006216049194 1.8193751573562622
-0.19256219267845154 -0.3219473958015442 1.8193670511245728
-0.19256217777729034 -0.32194626331329346 1.8193670511245728
-0.19256216287612915 -0.32194823026657104 1.8193674087524414
-0.1925623118877411 -0.32207822799682617 1.8193761110305786
-0.1925620436668396 -0.3219451904296875 1.8193669319152832
-0.1925620436668396 -0.3219451904296875 1.8193669319152832
-0.1925620138645172 -0.32194241881370544 1.8193669319152832
-0.1925620138645172 -0.32194238901138306 1.8193669319152832
-0.19256195425987244 -0.32194700837135315 1.8193672895431519
-0.19256186485290527 -0.3220410943031311 1.8193724155426025
-0.19256186485290527 -0.3220309615135193 1.8193720579147339
-0.1925618052482605 -0.3219456076622009 1.8193674087524414
-0.1925618052482605 -0.3219456076622009 1.8193674087524414
-0.1925617903470993 -0.3219393193721771 1.8193668127059937
-0.1925617903470993 -0.3219393193721771 1.8193668127059937
-0.19256184995174408 -0.32206377387046814 1.819374918937683
-0.19256198406219482 -0.3221428394317627 1.819380521774292
-0.19256168603897095 -0.321947306394577 1.819367527961731
-0.19256168603897095 -0.321947306394577 1.819367527961731
-0.19256187975406647 -0.32213884592056274 1.819380283355713
-0.19256159663200378 -0.32194486260414124 1.8193671703338623
-0.19256161153316498 -0.32194623351097107 1.8193676471710205
-0.1925618201494217 -0.322144091129303 1.819380760192871
-0.19256149232387543 -0.3219417333602905 1.8193672895431519
-0.19256149232387543 -0.3219495117664337 1.8193680047988892
-0.19256147742271423 -0.3219453692436218 1.8193676471710205
-0.19256141781806946 -0.3219470977783203 1.81936776638031
-0.19256135821342468 -0.32205966114997864 1.8193745613098145
-0.1925613284111023 -0.3220336437225342 1.8193728923797607
-0.1925612837076187 -0.3219481408596039 1.8193681240081787
-0.19256125390529633 -0.3219458758831024 1.8193678855895996
-0.19256122410297394 -0.32195013761520386 1.8193681240081787
-0.19256120920181274 -0.3219436705112457 1.81936776638031
-0.1925610899925232 -0.3220418393611908 1.8193726539611816
-0.19256089627742767 -0.32201844453811646 1.819369912147522
-0.1925608068704605 -0.32202067971229553 1.819370150566101
-0.19256100058555603 -0.3219464123249054 1.8193681240081787
-0.19256089627742767 -0.32204243540763855 1.8193731307983398
-0.19256095588207245 -0.32195067405700684 1.8193683624267578
-0.1925608515739441 -0.3220439851284027 1.8193731307983398
-0.19256088137626648 -0.32194438576698303 1.8193681240081787
-0.1925608515739441 -0.3219399154186249 1.8193678855895996
-0.19256079196929932 -0.32205507159233093 1.8193743228912354
-0.19256074726581573 -0.32194703817367554 1.8193684816360474
-0.19256073236465454 -0.32203108072280884 1.8193732500076294
-0.19256055355072021 -0.3219456672668457 1.819368600845337
-0.19256076216697693 -0.3221430480480194 1.819381594657898
-0.19256046414375305 -0.32194873690605164 1.819368839263916
-0.19256046414375305 -0.321943074464798 1.8193683624267578
-0.19256043434143066 -0.3221384882926941 1.8193813562393188
-0.1925601363182068 -0.3219400644302368 1.819368600845337
-0.1925598829984665 -0.3220231235027313 1.8193713426589966
-0.1925598829984665 -0.3220231235027313 1.8193713426589966
-0.1925601065158844 -0.32194584608078003 1.8193690776824951
-0.1925600916147232 -0.3219441771507263 1.8193690776824951
-0.19256024062633514 -0.3221440613269806 1.8193820714950562
-0.19255989789962769 -0.321946382522583 1.8193693161010742
-0.1925598829984665 -0.321950227022171 1.8193694353103638
-0.1925598680973053 -0.32194745540618896 1.8193694353103638
-0.1925598531961441 -0.3219424784183502 1.8193690776824951
-0.1925598382949829 -0.3219519257545471 1.8193696737289429
-0.19255982339382172 -0.321948766708374 1.8193695545196533
-0.19255952537059784 -0.3220224678516388 1.8193714618682861
-0.19256001710891724 -0.3220929801464081 1.8193798065185547
-0.1925598382949829 -0.32214391231536865 1.8193824291229248
-0.19255958497524261 -0.3219510018825531 1.819369912147522
-0.19255927205085754 -0.3220226764678955 1.8193719387054443
-0.19255948066711426 -0.3219403326511383 1.8193690776824951
-0.19255948066711426 -0.3219403326511383 1.8193690776824951
-0.19255949556827545 -0.3219437301158905 1.8193696737289429
-0.19255946576595306 -0.32194283604621887 1.8193696737289429
-0.19255945086479187 -0.3219476640224457 1.819369912147522
-0.19255945086479187 -0.3219476640224457 1.819369912147522
-0.19255942106246948 -0.3219451904296875 1.819369912147522
-0.19255927205085754 -0.3219396770000458 1.8193695545196533
-0.19255949556827545 -0.32214680314064026 1.819383144378662
-0.19255949556827545 -0.32214680314064026 1.819383144378662
-0.192559152841568 -0.3219437897205353 1.819370150566101
-0.19255928695201874 -0.3221394419670105 1.8193825483322144
-0.19255928695201874 -0.3221387267112732 1.819382667541504
-0.19255903363227844 -0.32195109128952026 1.8193705081939697
-0.19255921244621277 -0.3221464157104492 1.8193832635879517
-0.1925588697195053 -0.32195112109184265 1.8193705081939697
-0.1925588697195053 -0.32195112109184265 1.8193705081939697
-0.19255903363227844 -0.32214003801345825 1.8193827867507935
-0.1925588697195053 -0.32195067405700684 1.8193707466125488
-0.19255901873111725 -0.3219984173774719 1.8193755149841309
-0.19255872070789337 -0.3219432234764099 1.8193707466125488
-0.19255858659744263 -0.3219450116157532 1.8193708658218384
-0.19255857169628143 -0.3219456970691681 1.819370985031128
-0.19255854189395905 -0.32194221019744873 1.8193707466125488
-0.19255852699279785 -0.32203787565231323 1.8193764686584473
-0.19255800545215607 -0.32194390892982483 1.8193717002868652
-0.19255800545215607 -0.32194390892982483 1.8193717002868652
-0.19255806505680084 -0.32214581966400146 1.819384217262268
-0.19255800545215607 -0.3221419155597687 1.8193838596343994
-0.19255779683589935 -0.3221372365951538 1.8193838596343994
-0.19255733489990234 -0.3219379484653473 1.819372534751892
-0.1925571858882904 -0.32213732600212097 1.8193844556808472
-0.1925569474697113 -0.3219411075115204 1.819374442100525
-0.1925567239522934 -0.3221416175365448 1.819385051727295
-0.19255588948726654 -0.32213830947875977 1.8193856477737427
-0.19255521893501282 -0.3219073712825775 1.8193658590316772
-0.19255521893501282 -0.3219073712825775 1.8193658590316772
-0.1925559639930725 -0.321941077709198 1.8193756341934204
-0.1925557255744934 -0.32214289903640747 1.8193861246109009
-0.19255337119102478 -0.3219272196292877 1.8193737268447876
-0.19255264103412628 -0.3219356834888458 1.819374918937683
-0.19255264103412628 -0.3219356834888458 1.819374918937683
-0.19255024194717407 -0.3221430480480194 1.8193912506103516
-0.19254960119724274 -0.32213759422302246 1.8193916082382202
-0.19254912436008453 -0.3219214677810669 1.8193778991699219
-0.19254742562770844 -0.32190003991127014 1.8193731307983398
-0.1925477236509323 -0.32214629650115967 1.8193941116333008
-0.19254709780216217 -0.32214492559432983 1.819394588470459
-0.19254709780216217 -0.32214492559432983 1.819394588470459
-0.19254684448242188 -0.32213717699050903 1.8193941116333008
-0.19254621863365173 -0.3221456706523895 1.8193957805633545
-0.19254565238952637 -0.3221442699432373 1.8193960189819336
-0.1925457864999771 -0.3221547603607178 1.8193979263305664
-0.19254526495933533 -0.32215285301208496 1.8193978071212769
-0.19254475831985474 -0.321938693523407 1.8193832635879517
-0.19254419207572937 -0.3220294415950775 1.8193873167037964
-0.19254443049430847 -0.321938157081604 1.8193835020065308
-0.19254443049430847 -0.321938157081604 1.8193835020065308
-0.19254378974437714 -0.32202857732772827 1.8193875551223755
-0.19254282116889954 -0.3220236003398895 1.8193881511688232
-0.1925428807735443 -0.32213667035102844 1.8193981647491455
-0.19254246354103088 -0.3220221698284149 1.819388508796692
-0.1925429254770279 -0.3221493363380432 1.8194013833999634
-0.19254261255264282 -0.3221513330936432 1.8194012641906738
-0.19254183769226074 -0.3220216631889343 1.8193891048431396
-0.19254159927368164 -0.3219076097011566 1.8193800449371338
-0.1925409883260727 -0.3219185173511505 1.8193817138671875
-0.19254089891910553 -0.32202816009521484 1.8193905353546143
-0.19254064559936523 -0.3219025731086731 1.819380760192871
-0.19254064559936523 -0.3219025731086731 1.819380760192871
-0.1925399899482727 -0.32203030586242676 1.8193917274475098
-0.19253996014595032 -0.32203125953674316 1.8193919658660889
-0.19253996014595032 -0.32203125953674316 1.8193919658660889
-0.19253982603549957 -0.32214608788490295 1.8194022178649902
-0.19253969192504883 -0.32213935256004333 1.819401741027832
-0.19253933429718018 -0.3221461772918701 1.819402813911438
-0.19253866374492645 -0.32202234864234924 1.8193925619125366
-0.19253751635551453 -0.3221515119075775 1.8194044828414917
-0.19253671169281006 -0.32191768288612366 1.8193886280059814
-0.19253624975681305 -0.32214584946632385 1.8194060325622559
-0.19253534078598022 -0.3220685124397278 1.8194032907485962
-0.1925351619720459 -0.3221398591995239 1.8194072246551514
-0.1925351619720459 -0.32203981280326843 1.8194013833999634
-0.19253483414649963 -0.3220483362674713 1.8194023370742798
-0.1925346702337265 -0.32204875349998474 1.8194026947021484
-0.1925346851348877 -0.3220662474632263 1.819404125213623
-0.19253462553024292 -0.322067528963089 1.819404125213623
-0.19253462553024292 -0.322067528963089 1.819404125213623
-0.19253453612327576 -0.3220398724079132 1.8194019794464111
-0.19253455102443695 -0.32206103205680847 1.8194037675857544
-0.19253455102443695 -0.32206103205680847 1.8194037675857544
-0.1925344318151474 -0.3220459222793579 1.8194026947021484
-0.19253413379192352 -0.3220609724521637 1.8194043636322021
-0.19253377616405487 -0.32214465737342834 1.8194087743759155
-0.19253253936767578 -0.3221431374549866 1.8194098472595215
-0.192532017827034 -0.32203179597854614 1.8194007873535156
-0.19253219664096832 -0.3221440613269806 1.8194104433059692
-0.19253183901309967 -0.3221415579319 1.8194104433059692
-0.19253169000148773 -0.3221402168273926 1.8194105625152588
-0.19253112375736237 -0.3221357464790344 1.819410800933838
-0.1925305426120758 -0.32215338945388794 1.8194127082824707
-0.1925303190946579 -0.32214251160621643 1.819412350654602
-0.19253039360046387 -0.32194358110427856 1.8194016218185425
-0.1925303190946579 -0.32193008065223694 1.8194003105163574
-0.1925300508737564 -0.3221356272697449 1.8194122314453125
-0.19252993166446686 -0.3221558928489685 1.819413661956787
-0.19253003597259521 -0.32194197177886963 1.819401502609253
-0.19252972304821014 -0.32194244861602783 1.8194020986557007
-0.19252905249595642 -0.3221374452114105 1.819413185119629
-0.19252867996692657 -0.3221553564071655 1.8194152116775513
-0.1925286054611206 -0.3221431076526642 1.8194140195846558
-0.19252879917621613 -0.3219342529773712 1.8194019794464111
-0.19252851605415344 -0.32193025946617126 1.8194018602371216
-0.19252793490886688 -0.32190826535224915 1.8193963766098022
-0.19252793490886688 -0.32190826535224915 1.8193963766098022
-0.19252799451351166 -0.32193103432655334 1.8194022178649902
-0.19252799451351166 -0.32193103432655334 1.8194022178649902
-0.19252751767635345 -0.32190901041030884 1.81939697265625
-0.19252724945545197 -0.32215815782546997 1.8194199800491333
-0.19252653419971466 -0.32214388251304626 1.8194143772125244
-0.19252446293830872 -0.32215002179145813 1.8194159269332886
-0.1925244778394699 -0.32214877009391785 1.819415807723999
-0.19252446293830872 -0.3221478760242462 1.8194159269332886
-0.19252461194992065 -0.3219224810600281 1.819401502609253
-0.19252467155456543 -0.3219287693500519 1.819402813911438
-0.19252455234527588 -0.3221410810947418 1.8194191455841064
-0.19252415001392365 -0.32214751839637756 1.8194165229797363
-0.1925245225429535 -0.32215791940689087 1.8194210529327393
-0.1925244927406311 -0.32215654850006104 1.8194211721420288
-0.19252438843250275 -0.3221571147441864 1.8194210529327393
-0.19252389669418335 -0.3221502900123596 1.8194165229797363
-0.19252422451972961 -0.32215845584869385 1.8194215297698975
-0.19252388179302216 -0.3219217360019684 1.8194025754928589
-0.1925237774848938 -0.3221604824066162 1.819421648979187
-0.1925232708454132 -0.3221561312675476 1.8194224834442139
-0.19252315163612366 -0.32215753197669983 1.8194226026535034
-0.1925230324268341 -0.3219278156757355 1.8194055557250977
-0.1925230324268341 -0.32216426730155945 1.8194226026535034
-0.19252270460128784 -0.32191696763038635 1.8194036483764648
-0.19252251088619232 -0.3221637010574341 1.8194231986999512
-0.1925223022699356 -0.32191017270088196 1.8194036483764648
-0.19252203404903412 -0.3221644163131714 1.8194236755371094
-0.1925221085548401 -0.32215389609336853 1.8194239139556885
-0.19252189993858337 -0.3221666216850281 1.8194242715835571
-0.19252164661884308 -0.3219241499900818 1.819405436515808
-0.19252140820026398 -0.3219667375087738 1.8194130659103394
-0.19252100586891174 -0.3221668303012848 1.819425344467163
-0.19252103567123413 -0.322153776884079 1.819425106048584
-0.192520871758461 -0.32216110825538635 1.819425344467163
-0.19252066314220428 -0.3219667673110962 1.8194139003753662
-0.19252066314220428 -0.3219667673110962 1.8194139003753662
-0.19252002239227295 -0.3221643567085266 1.8194266557693481
-0.19252002239227295 -0.3221643567085266 1.8194266557693481
-0.19251982867717743 -0.32216355204582214 1.8194260597229004
-0.19251996278762817 -0.32196423411369324 1.8194142580032349
-0.19251994788646698 -0.3219550848007202 1.8194135427474976
-0.19251994788646698 -0.3219550848007202 1.8194135427474976
-0.19251972436904907 -0.32196366786956787 1.8194149732589722
-0.19251936674118042 -0.3221668004989624 1.8194273710250854
-0.19251875579357147 -0.32196056842803955 1.8194154500961304
-0.19251836836338043 -0.3221668004989624 1.8194282054901123
-0.19251781702041626 -0.32197099924087524 1.81941819190979
-0.19251738488674164 -0.3219131827354431 1.8194103240966797
-0.19251731038093567 -0.3219144642353058 1.8194105625152588
-0.1925172060728073 -0.3221651613712311 1.8194292783737183
-0.1925172060728073 -0.3221651613712311 1.8194292783737183
-0.19251714646816254 -0.32214248180389404 1.8194279670715332
-0.1925170123577118 -0.32192495465278625 1.8194119930267334
-0.19251692295074463 -0.3221656084060669 1.8194295167922974
-0.19251695275306702 -0.3219223618507385 1.8194118738174438
-0.19251692295074463 -0.3219156563282013 1.819411277770996
-0.19251666963100433 -0.32191306352615356 1.8194115161895752
-0.19251611828804016 -0.3219680190086365 1.8194199800491333
-0.19251570105552673 -0.32213452458381653 1.8194293975830078
-0.19251559674739838 -0.3219333291053772 1.8194150924682617
-0.19251540303230286 -0.32213401794433594 1.8194299936294556
-0.19251540303230286 -0.32213401794433594 1.8194299936294556
-0.19251573085784912 -0.3219727873802185 1.819421410560608
-0.19251534342765808 -0.32192954421043396 1.8194146156311035
-0.19251517951488495 -0.32213446497917175 1.8194301128387451
-0.1925155222415924 -0.3219706416130066 1.819421410560608
-0.1925148218870163 -0.3219280242919922 1.8194152116775513
-0.19251462817192078 -0.322165846824646 1.8194323778152466
-0.19251491129398346 -0.32196706533432007 1.819421648979187
-0.1925143301486969 -0.32216545939445496 1.8194326162338257
-0.1925143301486969 -0.32216545939445496 1.8194326162338257
-0.1925143152475357 -0.3221343755722046 1.819431185722351
-0.1925143152475357 -0.3221343755722046 1.819431185722351
-0.19251444935798645 -0.32195985317230225 1.8194215297698975
-0.19251400232315063 -0.321965754032135 1.819422721862793
-0.19251331686973572 -0.3219345211982727 1.8194185495376587
-0.1925135999917984 -0.32210904359817505 1.8194382190704346
-0.19251234829425812 -0.3219398856163025 1.8194223642349243
-0.19251184165477753 -0.32192888855934143 1.819419264793396
-0.19251103699207306 -0.321929007768631 1.8194204568862915
-0.19251024723052979 -0.3220375180244446 1.8194291591644287
-0.19251011312007904 -0.3219282329082489 1.8194217681884766
-0.19251035153865814 -0.32194042205810547 1.819425106048584
-0.19250988960266113 -0.32215264439582825 1.8194416761398315
-0.19250932335853577 -0.3221358358860016 1.819437861442566
-0.1925094723701477 -0.3219408690929413 1.8194270133972168
-0.19250886142253876 -0.32214227318763733 1.8194390535354614
-0.19250893592834473 -0.32193952798843384 1.8194255828857422
-0.19250915944576263 -0.32199031114578247 1.8194365501403809
-0.19250808656215668 -0.3221684396266937 1.819440484046936
-0.19250807166099548 -0.3221674859523773 1.819440484046936
-0.19250841438770294 -0.32193899154663086 1.8194267749786377
-0.19250789284706116 -0.32216691970825195 1.8194406032562256
-0.19250831007957458 -0.32194122672080994 1.8194283246994019
-0.19250768423080444 -0.3221674859523773 1.8194408416748047
-0.19250790774822235 -0.3219284117221832 1.8194246292114258
-0.19250765442848206 -0.3220384418964386 1.8194328546524048
-0.1925084888935089 -0.3219901919364929 1.8194372653961182
-0.19250839948654175 -0.3219877779483795 1.8194371461868286
-0.19250813126564026 -0.32198986411094666 1.8194377422332764
-0.19250813126564026 -0.32199355959892273 1.8194385766983032
-0.19250768423080444 -0.321983277797699 1.8194376230239868
-0.19250711798667908 -0.3220449984073639 1.8194420337677002
-0.19250600039958954 -0.32216915488243103 1.8194435834884644
-0.19250589609146118 -0.3220387399196625 1.8194353580474854
-0.19250556826591492 -0.32216131687164307 1.8194433450698853
-0.19250555336475372 -0.321932852268219 1.8194286823272705
-0.19250500202178955 -0.322167307138443 1.8194442987442017
-0.1925048530101776 -0.32216572761535645 1.8194440603256226
-0.1925056129693985 -0.3219483196735382 1.819435715675354
-0.19250456988811493 -0.32193073630332947 1.819429874420166
-0.19250427186489105 -0.3220389485359192 1.8194375038146973
-0.19250370562076569 -0.3219408690929413 1.8194327354431152
-0.19250313937664032 -0.32193106412887573 1.8194319009780884
-0.1925031691789627 -0.3219391703605652 1.8194330930709839
-0.19250287115573883 -0.32203909754753113 1.8194396495819092
-0.19250299036502838 -0.32193413376808167 1.8194329738616943
-0.19250278174877167 -0.32203805446624756 1.8194398880004883
-0.1925027072429657 -0.3221348524093628 1.8194471597671509
-0.19250279664993286 -0.3219386637210846 1.8194336891174316
-0.19250275194644928 -0.32193970680236816 1.8194340467453003
-0.19250304996967316 -0.3219503164291382 1.8194392919540405
-0.19250304996967316 -0.3219503164291382 1.8194392919540405
-0.19250251352787018 -0.3219339847564697 1.8194332122802734
-0.19250251352787018 -0.3219339847564697 1.8194332122802734
-0.19250239431858063 -0.32193297147750854 1.819433331489563
-0.19250193238258362 -0.3219274580478668 1.8194336891174316
-0.19250167906284332 -0.32213467359542847 1.819448709487915
-0.19250169396400452 -0.3219342529773712 1.819434404373169
-0.19250169396400452 -0.3219342529773712 1.819434404373169
-0.19250117242336273 -0.3219324052333832 1.8194348812103271
-0.19250068068504333 -0.3221360445022583 1.8194503784179688
-0.19250059127807617 -0.3221365809440613 1.8194502592086792
-0.19250009953975677 -0.32223308086395264 1.8194570541381836
-0.19250020384788513 -0.3220354914665222 1.8194432258605957
-0.1925000250339508 -0.3219352066516876 1.8194369077682495
-0.19249983131885529 -0.3220311105251312 1.8194438219070435
-0.19249965250492096 -0.3219369053840637 1.819438099861145
-0.19249942898750305 -0.32213184237480164 1.8194522857666016
-0.19249942898750305 -0.32213184237480164 1.8194522857666016
-0.19249922037124634 -0.3221319317817688 1.819451928138733
-0.19249936938285828 -0.32193508744239807 1.8194379806518555
-0.19249899685382843 -0.3221430480480194 1.8194531202316284
-0.19249852001667023 -0.32193243503570557 1.8194390535354614
-0.192498117685318 -0.32213327288627625 1.8194535970687866
-0.19249819219112396 -0.3219406306743622 1.819440245628357
-0.19249780476093292 -0.3219468891620636 1.8194422721862793
-0.1924976259469986 -0.3219301998615265 1.8194401264190674
-0.19249750673770905 -0.32194095849990845 1.8194410800933838
-0.19249720871448517 -0.3221592605113983 1.819456696510315
-0.1924971342086792 -0.321930855512619 1.8194407224655151
-0.19249679148197174 -0.3220308721065521 1.8194483518600464
-0.19249503314495087 -0.3219228982925415 1.8194432258605957
-0.19249477982521057 -0.3219204545021057 1.8194434642791748
-0.19249092042446136 -0.3219688832759857 1.8194516897201538
-0.19249024987220764 -0.32199451327323914 1.8194565773010254
-0.19248893857002258 -0.3219963014125824 1.8194581270217896
-0.19248893857002258 -0.3219963014125824 1.8194581270217896
-0.19248844683170319 -0.32199668884277344 1.819459080696106
-0.19248823821544647 -0.3219979405403137 1.8194597959518433
-0.19248689711093903 -0.321988046169281 1.8194594383239746
-0.1924860030412674 -0.32206040620803833 1.8194679021835327
-0.19248570501804352 -0.3219816982746124 1.8194622993469238
-0.192485049366951 -0.32199063897132874 1.8194599151611328
-0.19248519837856293 -0.3220582902431488 1.8194690942764282
-0.1924850046634674 -0.32199719548225403 1.8194639682769775
-0.19248417019844055 -0.32200056314468384 1.8194667100906372
-0.19248400628566742 -0.3219965100288391 1.8194653987884521
-0.19248385727405548 -0.3220565915107727 1.8194713592529297
-0.19248387217521667 -0.3220621645450592 1.8194721937179565
-0.19248329102993011 -0.32205796241760254 1.8194719552993774
-0.19248242676258087 -0.32199785113334656 1.8194681406021118
-0.19248217344284058 -0.3220558762550354 1.8194736242294312
-0.19248206913471222 -0.3220619559288025 1.8194741010665894
-0.1924820840358734 -0.3219884932041168 1.8194676637649536
-0.19248166680335999 -0.3220217227935791 1.819472074508667
-0.19248157739639282 -0.32199549674987793 1.8194694519042969
-0.1924809068441391 -0.32199826836586 1.819470763206482
-0.19248004257678986 -0.32205089926719666 1.8194750547409058
-0.19247962534427643 -0.3220573663711548 1.8194756507873535
-0.19247941672801971 -0.32204973697662354 1.8194756507873535
-0.19247952103614807 -0.32202619314193726 1.819475531578064
-0.19247856736183167 -0.3220556974411011 1.819476842880249
-0.19247856736183167 -0.3220488727092743 1.8194767236709595
-0.19247858226299286 -0.32204321026802063 1.8194764852523804
-0.19247838854789734 -0.32203319668769836 1.8194762468338013
-0.19247819483280182 -0.3220575749874115 1.8194774389266968
-0.19247807562351227 -0.3220535218715668 1.8194773197174072
-0.19247809052467346 -0.3220568001270294 1.819477915763855
-0.19247813522815704 -0.3220282793045044 1.8194763660430908
-0.19247761368751526 -0.3220512568950653 1.8194785118103027
-0.19247761368751526 -0.3220512568950653 1.8194785118103027
-0.19247746467590332 -0.32205674052238464 1.8194787502288818
-0.19247747957706451 -0.32205045223236084 1.8194785118103027
-0.19247739017009735 -0.3220576345920563 1.819478988647461
-0.19247736036777496 -0.32204997539520264 1.8194787502288818
-0.19247716665267944 -0.3220536410808563 1.819478988647461
-0.1924685686826706 -0.3222208619117737 1.8195067644119263
-0.19246694445610046 -0.3222206234931946 1.819508671760559
