ply
format ascii 1.0
element vertex 726
property float x
property float y
property float z
end_header
-1.9270111322402954 -2.6779918670654297 17.994598388671875
-1.9264848232269287 -2.675600290298462 17.992467880249023
-1.9263617992401123 -2.6765756607055664 17.992856979370117
-1.926362156867981 -2.676560401916504 17.99287223815918
-1.926360011100769 -2.676555871963501 17.992868423461914
-1.9262570142745972 -2.676711320877075 17.993247985839844
-1.926256775856018 -2.676682710647583 17.993247985839844
-1.9262522459030151 -2.6766865253448486 17.993240356445312
-1.9262527227401733 -2.6766867637634277 17.99324607849121
-1.9262677431106567 -2.6750447750091553 17.99359130859375
-1.9262412786483765 -2.6769609451293945 17.993288040161133
-1.9262415170669556 -2.676910638809204 17.993314743041992
-1.9263001680374146 -2.6749267578125 17.99399757385254
-1.9263001680374146 -2.6749267578125 17.99399757385254
-1.9262974262237549 -2.6749536991119385 17.993982315063477
-1.9262977838516235 -2.6749210357666016 17.994001388549805
-1.9262977838516235 -2.6749210357666016 17.994001388549805
-1.926296591758728 -2.6749777793884277 17.993989944458008
-1.926297664642334 -2.6749331951141357 17.99400520324707
-1.9262945652008057 -2.674917697906494 17.994003295898438
-1.9262943267822266 -2.6749401092529297 17.994009017944336
-1.9262961149215698 -2.6748926639556885 17.994028091430664
-1.926294207572937 -2.6749298572540283 17.994009017944336
-1.9262635707855225 -2.6759984493255615 17.993690490722656
-1.9262923002243042 -2.6749091148376465 17.994020462036133
-1.9262902736663818 -2.6749627590179443 17.994003295898438
-1.9262597560882568 -2.6761670112609863 17.99367332458496
-1.9262597560882568 -2.6761670112609863 17.99367332458496
-1.9262930154800415 -2.6755645275115967 17.9940128326416
-1.9262895584106445 -2.67497181892395 17.994007110595703
-1.9262895584106445 -2.67497181892395 17.994007110595703
-1.9262598752975464 -2.676088333129883 17.993682861328125
-1.9262900352478027 -2.674938440322876 17.994014739990234
-1.9262592792510986 -2.675935745239258 17.993688583374023
-1.9262583255767822 -2.676245927810669 17.993675231933594
-1.9262586832046509 -2.6760194301605225 17.993690490722656
-1.9262889623641968 -2.6749019622802734 17.994028091430664
-1.9262566566467285 -2.6762547492980957 17.993667602539062
-1.9262583255767822 -2.6758623123168945 17.99370002746582
-1.926256775856018 -2.676218032836914 17.993671417236328
-1.926256775856018 -2.676218032836914 17.993671417236328
-1.926290512084961 -2.674862861633301 17.99404525756836
-1.9262274503707886 -2.6768758296966553 17.993370056152344
-1.9262909889221191 -2.6755223274230957 17.994029998779297
-1.9262555837631226 -2.676083564758301 17.993677139282227
-1.9262555837631226 -2.676083564758301 17.993677139282227
-1.9262903928756714 -2.6754961013793945 17.99403190612793
-1.9262875318527222 -2.6748855113983154 17.994033813476562
-1.9262844324111938 -2.6749672889709473 17.994016647338867
-1.9262882471084595 -2.675489902496338 17.99403190612793
-1.9262534379959106 -2.6760482788085938 17.993684768676758
-1.926285743713379 -2.6749110221862793 17.994037628173828
-1.9262855052947998 -2.6749069690704346 17.994041442871094
-1.9262505769729614 -2.6762547492980957 17.993661880493164
-1.9262843132019043 -2.6748976707458496 17.994037628173828
-1.9262229204177856 -2.676875591278076 17.99338150024414
-1.9262495040893555 -2.6762166023254395 17.9936580657959
-1.926284670829773 -2.674875497817993 17.994047164916992
-1.926284909248352 -2.675537586212158 17.994035720825195
-1.9262465238571167 -2.676234722137451 17.99365234375
-1.9262465238571167 -2.676234722137451 17.99365234375
-1.9262816905975342 -2.674908399581909 17.994047164916992
-1.9262800216674805 -2.6749608516693115 17.994033813476562
-1.9262208938598633 -2.6768715381622314 17.99340057373047
-1.9262616634368896 -2.677154541015625 17.993778228759766
-1.9262462854385376 -2.6760358810424805 17.993677139282227
-1.926245093345642 -2.676255464553833 17.993663787841797
-1.926243543624878 -2.6762447357177734 17.99365997314453
-1.926243543624878 -2.6762447357177734 17.99365997314453
-1.9262816905975342 -2.675525426864624 17.99404525756836
-1.9262436628341675 -2.6762073040008545 17.993663787841797
-1.9262782335281372 -2.674938440322876 17.994043350219727
-1.9262775182724 -2.6749513149261475 17.99403953552246
-1.9262775182724 -2.6749513149261475 17.99403953552246
-1.9262802600860596 -2.674901247024536 17.994064331054688
-1.9262795448303223 -2.6748929023742676 17.994064331054688
-1.9262806177139282 -2.675522804260254 17.994050979614258
-1.9262763261795044 -2.6749587059020996 17.994035720825195
-1.9262787103652954 -2.67486834526062 17.994062423706055
-1.9262775182724 -2.674917221069336 17.994049072265625
-1.926243543624878 -2.6760642528533936 17.993680953979492
-1.9262784719467163 -2.6755378246307373 17.994049072265625
-1.926274061203003 -2.674971103668213 17.994041442871094
-1.9262361526489258 -2.6762337684631348 17.9936466217041
-1.9262737035751343 -2.674941301345825 17.994060516357422
-1.9262737035751343 -2.6748950481414795 17.99406623840332
-1.9262354373931885 -2.6761534214019775 17.99366569519043
-1.9262750148773193 -2.6754541397094727 17.994064331054688
-1.9262346029281616 -2.6762542724609375 17.993654251098633
-1.9262707233428955 -2.6749765872955322 17.994054794311523
-1.9262726306915283 -2.6748762130737305 17.99408721923828
-1.9262726306915283 -2.6748762130737305 17.99408721923828
-1.9262752532958984 -2.675536632537842 17.994081497192383
-1.9262330532073975 -2.676175355911255 17.993663787841797
-1.926270604133606 -2.674964666366577 17.99407386779785
-1.926270604133606 -2.674964666366577 17.99407386779785
-1.9262323379516602 -2.676159381866455 17.993671417236328
-1.9262300729751587 -2.676166534423828 17.993656158447266
-1.9262691736221313 -2.674927234649658 17.994089126586914
-1.9262683391571045 -2.674912929534912 17.994091033935547
-1.9262670278549194 -2.674980640411377 17.99407386779785
-1.9262678623199463 -2.6755316257476807 17.994060516357422
-1.9262666702270508 -2.674992561340332 17.994077682495117
-1.9262669086456299 -2.6755475997924805 17.994064331054688
-1.9262659549713135 -2.675572395324707 17.994062423706055
-1.9262325763702393 -2.675863027572632 17.993762969970703
-1.926265835762024 -2.674877882003784 17.994121551513672
-1.9262632131576538 -2.6755785942077637 17.99406623840332
-1.9262229204177856 -2.6761763095855713 17.993669509887695
-1.9262652397155762 -2.674886465072632 17.994121551513672
-1.9262033700942993 -2.676891326904297 17.99346160888672
-1.9262624979019165 -2.674921989440918 17.994131088256836
-1.9262582063674927 -2.675568103790283 17.99408721923828
-1.9262598752975464 -2.6756033897399902 17.994102478027344
-1.9262574911117554 -2.6755826473236084 17.994083404541016
-1.9262573719024658 -2.674992561340332 17.99410629272461
-1.9262253046035767 -2.675964593887329 17.99376678466797
-1.9262564182281494 -2.6750121116638184 17.994110107421875
-1.9262248277664185 -2.6758170127868652 17.993778228759766
-1.9262558221817017 -2.6755435466766357 17.994094848632812
-1.9262548685073853 -2.675001382827759 17.994115829467773
-1.9262158870697021 -2.6760942935943604 17.99372100830078
-1.92621648311615 -2.6759989261627197 17.99373435974121
-1.926216959953308 -2.676279067993164 17.993732452392578
-1.9262192249298096 -2.6759753227233887 17.9937744140625
-1.9262526035308838 -2.6750004291534424 17.9941349029541
-1.9262521266937256 -2.6755456924438477 17.994138717651367
-1.9262146949768066 -2.6757965087890625 17.99378776550293
-1.9262070655822754 -2.6760668754577637 17.99374008178711
-1.9262114763259888 -2.6758272647857666 17.993816375732422
-1.9262064695358276 -2.6762828826904297 17.993755340576172
-1.9262021780014038 -2.675973653793335 17.9937744140625
-1.926207184791565 -2.675799608230591 17.993831634521484
-1.9262009859085083 -2.6760060787200928 17.99376678466797
-1.9261996746063232 -2.6760523319244385 17.993755340576172
-1.9262017011642456 -2.676124334335327 17.993770599365234
-1.9261993169784546 -2.6762855052948 17.993743896484375
-1.9261997938156128 -2.676208257675171 17.993759155273438
-1.9261786937713623 -2.676933765411377 17.993553161621094
-1.9263077974319458 -2.6773762702941895 17.994796752929688
-1.9263050556182861 -2.677367925643921 17.99479103088379
-1.9263050556182861 -2.677367925643921 17.99479103088379
-1.9263027906417847 -2.677374839782715 17.994787216186523
-1.9261891841888428 -2.6761763095855713 17.993755340576172
-1.9261891841888428 -2.6761763095855713 17.993755340576172
-1.9263050556182861 -2.6772923469543457 17.994836807250977
-1.9261709451675415 -2.676908254623413 17.99359130859375
-1.9261647462844849 -2.6768834590911865 17.993614196777344
-1.926289439201355 -2.677320718765259 17.994792938232422
-1.926289439201355 -2.677320718765259 17.994792938232422
-1.9261589050292969 -2.676882266998291 17.993637084960938
-1.9261633157730103 -2.677002191543579 17.99371337890625
-1.926153540611267 -2.6769795417785645 17.993654251098633
-1.926131248474121 -2.6769468784332275 17.993728637695312
-1.9261834621429443 -2.6748714447021484 17.994308471679688
-1.9262235164642334 -2.6761856079101562 17.99466323852539
-1.9262248277664185 -2.676046848297119 17.99468231201172
-1.9262248277664185 -2.676046848297119 17.99468231201172
-1.9262242317199707 -2.6761505603790283 17.994672775268555
-1.9262237548828125 -2.676140308380127 17.99466896057129
-1.9262237548828125 -2.676140308380127 17.99466896057129
-1.9262235164642334 -2.676166534423828 17.99466896057129
-1.926222801208496 -2.676135778427124 17.994674682617188
-1.9262224435806274 -2.676081895828247 17.994674682617188
-1.9262233972549438 -2.6760401725769043 17.99468421936035
-1.9262233972549438 -2.6760401725769043 17.99468421936035
-1.9262222051620483 -2.6761913299560547 17.99466896057129
-1.9262220859527588 -2.6760644912719727 17.994674682617188
-1.9262360334396362 -2.677356004714966 17.994770050048828
-1.9262199401855469 -2.676248788833618 17.994661331176758
-1.9262219667434692 -2.676114082336426 17.994688034057617
-1.9262219667434692 -2.676114082336426 17.994688034057617
-1.9262198209762573 -2.6761178970336914 17.994678497314453
-1.9262198209762573 -2.6761178970336914 17.994678497314453
-1.9262206554412842 -2.676100254058838 17.99468994140625
-1.9261806011199951 -2.6748886108398438 17.994380950927734
-1.9262183904647827 -2.676133394241333 17.994686126708984
-1.9261231422424316 -2.676906108856201 17.99376106262207
-1.9262301921844482 -2.6773533821105957 17.99476432800293
-1.9262301921844482 -2.6773533821105957 17.99476432800293
-1.926214337348938 -2.676248073577881 17.994657516479492
-1.9262162446975708 -2.6760828495025635 17.994680404663086
-1.9262179136276245 -2.6760754585266113 17.994699478149414
-1.9262162446975708 -2.676115036010742 17.99468994140625
-1.9261207580566406 -2.6769402027130127 17.993764877319336
-1.9262131452560425 -2.6762452125549316 17.994672775268555
-1.9262131452560425 -2.6762452125549316 17.994672775268555
-1.9262136220932007 -2.676119089126587 17.994686126708984
-1.926211953163147 -2.6761958599090576 17.994670867919922
-1.9262102842330933 -2.676248788833618 17.994665145874023
-1.9262126684188843 -2.6760928630828857 17.99469757080078
-1.9262096881866455 -2.676048755645752 17.99469757080078
-1.9262096881866455 -2.676048755645752 17.99469757080078
-1.9262080192565918 -2.6762733459472656 17.994674682617188
-1.9262080192565918 -2.6762733459472656 17.994674682617188
-1.9262089729309082 -2.676084280014038 17.99469566345215
-1.9262123107910156 -2.677358627319336 17.994768142700195
-1.9261094331741333 -2.676945686340332 17.993810653686523
-1.9262040853500366 -2.6760900020599365 17.99473762512207
-1.9262012243270874 -2.6761012077331543 17.994720458984375
-1.9261729717254639 -2.674797773361206 17.99454116821289
-1.9261729717254639 -2.674797773361206 17.99454116821289
-1.9261972904205322 -2.6760666370391846 17.994726181030273
-1.9262045621871948 -2.677506685256958 17.99477195739746
-1.9261908531188965 -2.676114320755005 17.994718551635742
-1.9261912107467651 -2.676098108291626 17.99473762512207
-1.9261912107467651 -2.676098108291626 17.99473762512207
-1.9261887073516846 -2.6761696338653564 17.994728088378906
-1.9260977506637573 -2.6769421100616455 17.993844985961914
-1.9261996746063232 -2.6775381565093994 17.99480438232422
-1.9261962175369263 -2.6775293350219727 17.99480438232422
-1.9261950254440308 -2.6775126457214355 17.994802474975586
-1.9261835813522339 -2.6774213314056396 17.994775772094727
-1.926082730293274 -2.676882028579712 17.99393081665039
-1.9262100458145142 -2.6763837337493896 17.99531364440918
-1.9261672496795654 -2.6774542331695557 17.994897842407227
-1.9261648654937744 -2.6774399280548096 17.99489974975586
-1.9262040853500366 -2.6763622760772705 17.99532127380371
-1.9261871576309204 -2.676248073577881 17.995182037353516
-1.9260783195495605 -2.6770715713500977 17.99412727355957
-1.9262025356292725 -2.676421880722046 17.995332717895508
-1.9262011051177979 -2.676391124725342 17.995323181152344
-1.9261850118637085 -2.6762378215789795 17.995201110839844
-1.9261850118637085 -2.6762378215789795 17.995201110839844
-1.9261611700057983 -2.6773972511291504 17.99494743347168
-1.92615807056427 -2.6774115562438965 17.994935989379883
-1.92615807056427 -2.6774115562438965 17.994935989379883
-1.9260592460632324 -2.676957607269287 17.9940128326416
-1.9261560440063477 -2.6774234771728516 17.99492073059082
-1.9261560440063477 -2.6774234771728516 17.99492073059082
-1.9261552095413208 -2.677432060241699 17.994911193847656
-1.9261552095413208 -2.677432060241699 17.994911193847656
-1.9261590242385864 -2.677377939224243 17.994958877563477
-1.9261597394943237 -2.6773650646209717 17.99497413635254
-1.9261525869369507 -2.677440643310547 17.994911193847656
-1.9261574745178223 -2.677344799041748 17.994985580444336
-1.9261574745178223 -2.677344799041748 17.994985580444336
-1.926191806793213 -2.676403522491455 17.99534034729004
-1.9261507987976074 -2.6774191856384277 17.994930267333984
-1.9261507987976074 -2.6774191856384277 17.994930267333984
-1.926148772239685 -2.67743182182312 17.99492073059082
-1.9261467456817627 -2.677443265914917 17.99491310119629
-1.9261523485183716 -2.6773505210876465 17.994991302490234
-1.9261505603790283 -2.677368402481079 17.994977951049805
-1.9261524677276611 -2.6773383617401123 17.994998931884766
-1.9261432886123657 -2.6774489879608154 17.994909286499023
-1.9261505603790283 -2.6773600578308105 17.994985580444336
-1.9261506795883179 -2.677320718765259 17.99500846862793
-1.9261438846588135 -2.677415609359741 17.994945526123047
-1.9261500835418701 -2.6773269176483154 17.995014190673828
-1.9260473251342773 -2.6769607067108154 17.99405288696289
-1.9261419773101807 -2.677403450012207 17.99496078491211
-1.9261435270309448 -2.677363872528076 17.99498176574707
-1.926138997077942 -2.677412986755371 17.99493980407715
-1.9261451959609985 -2.6773319244384766 17.995010375976562
-1.9261714220046997 -2.676297426223755 17.995290756225586
-1.9261445999145508 -2.67732572555542 17.995018005371094
-1.9260414838790894 -2.676955461502075 17.994064331054688
-1.9260414838790894 -2.676955461502075 17.994064331054688
-1.9261369705200195 -2.677382230758667 17.994962692260742
-1.9261369705200195 -2.677382230758667 17.994962692260742
-1.9261161088943481 -2.6760363578796387 17.99481201171875
-1.926175594329834 -2.676427125930786 17.995363235473633
-1.9261415004730225 -2.677330732345581 17.995018005371094
-1.9261415004730225 -2.677330732345581 17.995018005371094
-1.926088571548462 -2.674808979034424 17.994651794433594
-1.9260412454605103 -2.677048683166504 17.994129180908203
-1.9261325597763062 -2.6773629188537598 17.9949893951416
-1.926137924194336 -2.6773064136505127 17.99504280090332
-1.926137924194336 -2.6773064136505127 17.99504280090332
-1.926137924194336 -2.6773064136505127 17.99504280090332
-1.926035761833191 -2.676950216293335 17.99408531188965
-1.9260355234146118 -2.6769211292266846 17.994098663330078
-1.9261376857757568 -2.677290678024292 17.99505615234375
-1.9261363744735718 -2.6772968769073486 17.995052337646484
-1.9261375665664673 -2.677277088165283 17.995067596435547
-1.9261289834976196 -2.6773488521575928 17.9950008392334
-1.9261257648468018 -2.677358865737915 17.994985580444336
-1.9261283874511719 -2.677335500717163 17.995012283325195
-1.9261283874511719 -2.677335500717163 17.995012283325195
-1.926131010055542 -2.677302360534668 17.995046615600586
-1.9261324405670166 -2.6772854328155518 17.995071411132812
-1.9261459112167358 -2.6762306690216064 17.9952335357666
-1.9261459112167358 -2.6762306690216064 17.9952335357666
-1.9261245727539062 -2.6773407459259033 17.99500846862793
-1.9261245727539062 -2.6773407459259033 17.99500846862793
-1.9261289834976196 -2.6772923469543457 17.99506187438965
-1.9261289834976196 -2.6772923469543457 17.99506187438965
-1.9261245727539062 -2.677330493927002 17.995018005371094
-1.926131248474121 -2.677262783050537 17.995092391967773
-1.9260386228561401 -2.675774335861206 17.99427604675293
-1.9261283874511719 -2.6772725582122803 17.99507713317871
-1.9261283874511719 -2.6772725582122803 17.99507713317871
-1.9260379076004028 -2.6770191192626953 17.99422836303711
-1.9261294603347778 -2.677258014678955 17.995101928710938
-1.9260287284851074 -2.6770482063293457 17.99415397644043
-1.9261221885681152 -2.6773080825805664 17.995044708251953
-1.926125407218933 -2.677279233932495 17.99507713317871
-1.926125407218933 -2.677279233932495 17.99507713317871
-1.9261291027069092 -2.6772472858428955 17.995119094848633
-1.9260354042053223 -2.6770150661468506 17.99423599243164
-1.9261186122894287 -2.6773276329040527 17.995019912719727
-1.9261243343353271 -2.6772613525390625 17.995101928710938
-1.926116704940796 -2.6773173809051514 17.995037078857422
-1.926122784614563 -2.6772520542144775 17.9951114654541
-1.9261159896850586 -2.677293062210083 17.99506378173828
-1.9261175394058228 -2.67726731300354 17.995094299316406
-1.9260276556015015 -2.675823450088501 17.99431610107422
-1.9260591268539429 -2.6762022972106934 17.99460792541504
-1.9260591268539429 -2.6762022972106934 17.99460792541504
-1.9261173009872437 -2.6772329807281494 17.995128631591797
-1.9261118173599243 -2.6772828102111816 17.995075225830078
-1.9260268211364746 -2.67580509185791 17.994325637817383
-1.9260576963424683 -2.6760683059692383 17.994611740112305
-1.9260587692260742 -2.676010847091675 17.994625091552734
-1.92605721950531 -2.6761422157287598 17.99460792541504
-1.9260237216949463 -2.6758131980895996 17.99431610107422
-1.9261102676391602 -2.6772706508636475 17.995088577270508
-1.9261125326156616 -2.6772468090057373 17.995121002197266
-1.9261125326156616 -2.6772468090057373 17.995121002197266
-1.9261072874069214 -2.6772608757019043 17.99510383605957
-1.9261072874069214 -2.6772608757019043 17.99510383605957
-1.926010251045227 -2.6768808364868164 17.99419403076172
-1.926108717918396 -2.6772501468658447 17.99512481689453
-1.9260191917419434 -2.6758575439453125 17.994340896606445
-1.9260995388031006 -2.677293539047241 17.995065689086914
-1.9260486364364624 -2.6763617992401123 17.99461555480957
-1.926102876663208 -2.6772429943084717 17.99513053894043
-1.926102876663208 -2.6772429943084717 17.99513053894043
-1.9261001348495483 -2.6772549152374268 17.9951114654541
-1.926099181175232 -2.677248239517212 17.99512481689453
-1.926008939743042 -2.6770224571228027 17.994279861450195
-1.926008939743042 -2.6770224571228027 17.994279861450195
-1.926098108291626 -2.6772425174713135 17.995141983032227
-1.926000952720642 -2.677029609680176 17.994285583496094
-1.9259955883026123 -2.676992416381836 17.99423599243164
-1.9260001182556152 -2.6770553588867188 17.994277954101562
-1.9260001182556152 -2.6770553588867188 17.994277954101562
-1.9259949922561646 -2.676884174346924 17.994247436523438
-1.9259926080703735 -2.6770517826080322 17.994291305541992
-1.9260393381118774 -2.6748640537261963 17.994831085205078
-1.9260326623916626 -2.674863338470459 17.99483871459961
-1.9260095357894897 -2.6762967109680176 17.99461555480957
-1.9260088205337524 -2.6762566566467285 17.994625091552734
-1.926007628440857 -2.676274061203003 17.99462127685547
-1.9260090589523315 -2.6760644912719727 17.99465560913086
-1.9260075092315674 -2.6761817932128906 17.994647979736328
-1.9260075092315674 -2.6761817932128906 17.994647979736328
-1.9260077476501465 -2.676072359085083 17.99465560913086
-1.9260077476501465 -2.676072359085083 17.99465560913086
-1.9260050058364868 -2.6763007640838623 17.99462890625
-1.926006555557251 -2.6760153770446777 17.994670867919922
-1.926005244255066 -2.6760616302490234 17.994659423828125
-1.9259673357009888 -2.677018642425537 17.994295120239258
-1.9259824752807617 -2.6757917404174805 17.994495391845703
-1.9259650707244873 -2.6770384311676025 17.99428939819336
-1.925961971282959 -2.6770262718200684 17.994281768798828
-1.925958275794983 -2.6770176887512207 17.99428367614746
-1.9259506464004517 -2.6770331859588623 17.99431800842285
-1.925963044166565 -2.6759068965911865 17.994552612304688
-1.9259623289108276 -2.67590069770813 17.99455451965332
-1.925979495048523 -2.674867868423462 17.99480438232422
-1.9259756803512573 -2.6748547554016113 17.994787216186523
-1.9259452819824219 -2.6769626140594482 17.994417190551758
-1.9259965419769287 -2.674945116043091 17.99501609802246
-1.9259401559829712 -2.67704176902771 17.994417190551758
-1.925939917564392 -2.676950454711914 17.99444007873535
-1.9259904623031616 -2.6749539375305176 17.995019912719727
-1.9259634017944336 -2.6748526096343994 17.99479866027832
-1.9259382486343384 -2.6769516468048096 17.994468688964844
-1.9259785413742065 -2.6771745681762695 17.994853973388672
-1.925982117652893 -2.6750380992889404 17.9950008392334
-1.92593514919281 -2.6769301891326904 17.99448013305664
-1.9259334802627563 -2.676957368850708 17.994464874267578
-1.9259833097457886 -2.674962282180786 17.995023727416992
-1.9259816408157349 -2.674955129623413 17.995025634765625
-1.9259318113327026 -2.6769349575042725 17.99448013305664
-1.9260441064834595 -2.676457166671753 17.995586395263672
-1.9260436296463013 -2.6764702796936035 17.995601654052734
-1.9259889125823975 -2.675161600112915 17.99516487121582
-1.9260377883911133 -2.67647647857666 17.99558448791504
-1.9260382652282715 -2.6764771938323975 17.99559211730957
-1.9259833097457886 -2.675463914871216 17.995128631591797
-1.92592453956604 -2.6768999099731445 17.994522094726562
-1.9259201288223267 -2.677053928375244 17.994474411010742
-1.9259843826293945 -2.675466299057007 17.995145797729492
-1.925950527191162 -2.674877166748047 17.9948787689209
-1.9259204864501953 -2.676936626434326 17.99454116821289
-1.926015019416809 -2.676140308380127 17.995466232299805
-1.926015019416809 -2.676140308380127 17.995466232299805
-1.926012635231018 -2.676302909851074 17.995439529418945
-1.9259064197540283 -2.6769907474517822 17.994417190551758
-1.9260036945343018 -2.6760730743408203 17.995372772216797
-1.9260101318359375 -2.676157236099243 17.995454788208008
-1.926010251045227 -2.6761741638183594 17.99545669555664
-1.9260079860687256 -2.6762771606445312 17.995441436767578
-1.9260064363479614 -2.6762616634368896 17.995441436767578
-1.926005244255066 -2.6761274337768555 17.995447158813477
-1.926004409790039 -2.6762309074401855 17.995441436767578
-1.926004409790039 -2.676218032836914 17.995441436767578
-1.9260034561157227 -2.6761739253997803 17.995445251464844
-1.9259936809539795 -2.6760711669921875 17.9953670501709
-1.9259333610534668 -2.677156925201416 17.99476432800293
-1.9259332418441772 -2.6771297454833984 17.99477195739746
-1.9259998798370361 -2.6762161254882812 17.995437622070312
-1.9259999990463257 -2.676201581954956 17.995441436767578
-1.9260002374649048 -2.676163911819458 17.995447158813477
-1.92599618434906 -2.6762888431549072 17.995405197143555
-1.9259992837905884 -2.6761882305145264 17.995445251464844
-1.925998568534851 -2.6761186122894287 17.99544334411621
-1.9259982109069824 -2.6762845516204834 17.995437622070312
-1.9259116649627686 -2.6769630908966064 17.994596481323242
-1.9259976148605347 -2.6761412620544434 17.995445251464844
-1.9259973764419556 -2.6761515140533447 17.995441436767578
-1.9259957075119019 -2.6762750148773193 17.995424270629883
-1.925927996635437 -2.6771531105041504 17.9947566986084
-1.9259964227676392 -2.676208734512329 17.995437622070312
-1.9259048700332642 -2.677063226699829 17.994548797607422
-1.925925850868225 -2.677131175994873 17.99475860595703
-1.9259930849075317 -2.6762499809265137 17.995426177978516
-1.925923228263855 -2.677158832550049 17.994747161865234
-1.9259916543960571 -2.676142692565918 17.995433807373047
-1.925919532775879 -2.6771323680877686 17.9947452545166
-1.925901174545288 -2.676971197128296 17.994583129882812
-1.925917148590088 -2.677124261856079 17.9947452545166
-1.925909399986267 -2.675839900970459 17.994762420654297
-1.925978660583496 -2.6762988567352295 17.995407104492188
-1.925981879234314 -2.676149606704712 17.995445251464844
-1.9259257316589355 -2.6748416423797607 17.994977951049805
-1.9259790182113647 -2.676220655441284 17.995424270629883
-1.9259790182113647 -2.676220655441284 17.995424270629883
-1.9258912801742554 -2.677074909210205 17.994577407836914
-1.9259768724441528 -2.6762301921844482 17.99543571472168
-1.925868034362793 -2.6769795417785645 17.994449615478516
-1.9259570837020874 -2.676072835922241 17.995344161987305
-1.9259092807769775 -2.674860715866089 17.99500274658203
-1.9258850812911987 -2.6771864891052246 17.994680404663086
-1.9258825778961182 -2.677178144454956 17.99467658996582
-1.9258819818496704 -2.6771886348724365 17.99468994140625
-1.9259560108184814 -2.6762874126434326 17.995433807373047
-1.9259560108184814 -2.6762874126434326 17.995433807373047
-1.9259532690048218 -2.6763296127319336 17.995418548583984
-1.9258761405944824 -2.6771106719970703 17.99468421936035
-1.9259508848190308 -2.6763596534729004 17.99542236328125
-1.9259507656097412 -2.6763737201690674 17.99542236328125
-1.9258975982666016 -2.6749086380004883 17.99500846862793
-1.9258735179901123 -2.677175283432007 17.994688034057617
-1.9258986711502075 -2.6748712062835693 17.995054244995117
-1.925910472869873 -2.6752963066101074 17.995159149169922
-1.925910472869873 -2.6752119064331055 17.995162963867188
-1.925910234451294 -2.6752917766571045 17.99517059326172
-1.9259061813354492 -2.675220489501953 17.99518585205078
-1.9258896112442017 -2.6749467849731445 17.99506187438965
-1.9258896112442017 -2.6749467849731445 17.99506187438965
-1.9258573055267334 -2.6771395206451416 17.994672775268555
-1.9258573055267334 -2.6771395206451416 17.994672775268555
-1.9258573055267334 -2.6771395206451416 17.994672775268555
-1.9258641004562378 -2.6770570278167725 17.99474334716797
-1.9258872270584106 -2.6749114990234375 17.995073318481445
-1.925924301147461 -2.6760599613189697 17.995380401611328
-1.9258856773376465 -2.6749463081359863 17.99508285522461
-1.925826072692871 -2.67698073387146 17.994457244873047
-1.9258825778961182 -2.6749610900878906 17.99509620666504
-1.9259086847305298 -2.676065444946289 17.995325088500977
-1.9258522987365723 -2.676931858062744 17.994766235351562
-1.9258488416671753 -2.676943063735962 17.994770050048828
-1.9258896112442017 -2.675050973892212 17.995248794555664
-1.9258456230163574 -2.677173376083374 17.994754791259766
-1.9258443117141724 -2.677117347717285 17.9947566986084
-1.9258501529693604 -2.6770918369293213 17.99483871459961
-1.9259206056594849 -2.6755640506744385 17.995590209960938
-1.9258718490600586 -2.6749253273010254 17.99518585205078
-1.9259155988693237 -2.6764075756073 17.99554443359375
-1.9259161949157715 -2.676395893096924 17.995555877685547
-1.9259159564971924 -2.676384925842285 17.99555206298828
-1.9259153604507446 -2.6763644218444824 17.99555015563965
-1.9259153604507446 -2.6763644218444824 17.99555015563965
-1.9259129762649536 -2.6764776706695557 17.995525360107422
-1.9259164333343506 -2.6763241291046143 17.995573043823242
-1.9259166717529297 -2.6762490272521973 17.995586395263672
-1.9258328676223755 -2.6771700382232666 17.99479103088379
-1.925878643989563 -2.675375461578369 17.995296478271484
-1.9258735179901123 -2.675063371658325 17.995267868041992
-1.9258607625961304 -2.6749889850616455 17.995189666748047
-1.92587411403656 -2.6753768920898438 17.99530601501465
-1.9258991479873657 -2.6764211654663086 17.995532989501953
-1.9258991479873657 -2.6764211654663086 17.995532989501953
-1.9258959293365479 -2.676501512527466 17.995500564575195
-1.9258997440338135 -2.6763625144958496 17.995548248291016
-1.9258997440338135 -2.6763625144958496 17.995548248291016
-1.9258720874786377 -2.6752634048461914 17.995332717895508
-1.925899863243103 -2.6763365268707275 17.99555206298828
-1.9259005784988403 -2.6762795448303223 17.995563507080078
-1.9258993864059448 -2.6763229370117188 17.99555206298828
-1.9258577823638916 -2.6750128269195557 17.99521827697754
-1.9259003400802612 -2.676245927810669 17.99557113647461
-1.9259003400802612 -2.676245927810669 17.99557113647461
-1.925869107246399 -2.6752917766571045 17.99532699584961
-1.9258538484573364 -2.6749954223632812 17.995216369628906
-1.925826072692871 -2.676927089691162 17.994876861572266
-1.925868272781372 -2.675278425216675 17.995346069335938
-1.925849199295044 -2.6749985218048096 17.995222091674805
-1.925815463066101 -2.6771585941314697 17.994815826416016
-1.9258501529693604 -2.674959421157837 17.995248794555664
-1.925848364830017 -2.675013542175293 17.995241165161133
-1.9258551597595215 -2.675072431564331 17.995311737060547
-1.9258095026016235 -2.677142381668091 17.994827270507812
-1.925808310508728 -2.677164077758789 17.99483871459961
-1.9258421659469604 -2.6749863624572754 17.99525260925293
-1.9258426427841187 -2.67500901222229 17.995267868041992
-1.9258440732955933 -2.675034284591675 17.995281219482422
-1.925812005996704 -2.676884889602661 17.994932174682617
-1.925801396369934 -2.677175283432007 17.994844436645508
-1.9258384704589844 -2.6749439239501953 17.99529457092285
-1.9258407354354858 -2.6750433444976807 17.99532699584961
-1.925805926322937 -2.6771838665008545 17.99492073059082
-1.9258384704589844 -2.6750519275665283 17.995315551757812
-1.9258077144622803 -2.676867961883545 17.994964599609375
-1.9258077144622803 -2.676867961883545 17.994964599609375
-1.925831913948059 -2.675008773803711 17.99530792236328
-1.9258044958114624 -2.676877021789551 17.994966506958008
-1.925803303718567 -2.676964044570923 17.994972229003906
-1.9258297681808472 -2.674988031387329 17.99531364440918
-1.9258108139038086 -2.6759564876556396 17.995094299316406
-1.9258286952972412 -2.6749985218048096 17.995319366455078
-1.9257912635803223 -2.6771583557128906 17.994882583618164
-1.9257885217666626 -2.6771650314331055 17.99489402770996
-1.9258249998092651 -2.674994468688965 17.99534797668457
-1.9257959127426147 -2.6768758296966553 17.994991302490234
-1.925795078277588 -2.676957368850708 17.994997024536133
-1.9258263111114502 -2.6750710010528564 17.995376586914062
-1.9258633852005005 -2.67525577545166 17.995737075805664
-1.9257912635803223 -2.6768829822540283 17.9950008392334
-1.9258208274841309 -2.675039768218994 17.995359420776367
-1.9258208274841309 -2.675039768218994 17.995359420776367
-1.9257912635803223 -2.6768836975097656 17.9950008392334
-1.9257785081863403 -2.677112340927124 17.994897842407227
-1.925817608833313 -2.6750450134277344 17.995386123657227
-1.9258164167404175 -2.675074815750122 17.995380401611328
-1.9257855415344238 -2.67696475982666 17.995027542114258
-1.9257776737213135 -2.6771554946899414 17.994953155517578
-1.925820231437683 -2.675112009048462 17.99544906616211
-1.9258122444152832 -2.6749966144561768 17.995393753051758
-1.9258100986480713 -2.675014019012451 17.995386123657227
-1.9258191585540771 -2.6767005920410156 17.995424270629883
-1.925776481628418 -2.6769697666168213 17.995033264160156
-1.9258087873458862 -2.675011396408081 17.995424270629883
-1.9258185625076294 -2.6766910552978516 17.995441436767578
-1.9258064031600952 -2.6750190258026123 17.99542236328125
-1.9258157014846802 -2.675114154815674 17.995502471923828
-1.9258164167404175 -2.6765191555023193 17.99547576904297
-1.9258170127868652 -2.6765053272247314 17.9954833984375
-1.9257749319076538 -2.6769299507141113 17.995079040527344
-1.9258017539978027 -2.675029993057251 17.99542236328125
-1.925781488418579 -2.6760032176971436 17.995201110839844
-1.925761103630066 -2.6771275997161865 17.994964599609375
-1.925761342048645 -2.6771633625030518 17.994966506958008
-1.9257607460021973 -2.677170991897583 17.994962692260742
-1.9257992506027222 -2.675001382827759 17.995426177978516
-1.925812005996704 -2.6764302253723145 17.995492935180664
-1.9257696866989136 -2.676898241043091 17.995094299316406
-1.9257556200027466 -2.677119255065918 17.994958877563477
-1.9257947206497192 -2.675084352493286 17.99544906616211
-1.9257639646530151 -2.676884889602661 17.995092391967773
-1.9257628917694092 -2.676933526992798 17.995092391967773
-1.925770878791809 -2.676884412765503 17.99517250061035
-1.9257649183273315 -2.6759214401245117 17.995256423950195
-1.9257854223251343 -2.6750223636627197 17.99549674987793
-1.9257830381393433 -2.675074577331543 17.99549102783203
-1.9257818460464478 -2.6750540733337402 17.995492935180664
-1.925736427307129 -2.6770851612091064 17.995014190673828
-1.9257478713989258 -2.6769230365753174 17.995159149169922
-1.925734043121338 -2.677165985107422 17.995019912719727
-1.9257557392120361 -2.676015853881836 17.995277404785156
-1.9257721900939941 -2.675029993057251 17.99555778503418
-1.9257696866989136 -2.675063371658325 17.99553871154785
-1.9257725477218628 -2.6751222610473633 17.995567321777344
-1.925723671913147 -2.677156925201416 17.995059967041016
-1.9257690906524658 -2.675130844116211 17.99558448791504
-1.9257690906524658 -2.675130844116211 17.99558448791504
-1.9257453680038452 -2.6760165691375732 17.99532699584961
-1.925768256187439 -2.675119638442993 17.995586395263672
-1.9257440567016602 -2.6760218143463135 17.99532127380371
-1.9257638454437256 -2.675036668777466 17.995576858520508
-1.9257643222808838 -2.6750783920288086 17.995580673217773
-1.9257633686065674 -2.675104856491089 17.995574951171875
-1.9257137775421143 -2.6771185398101807 17.99505615234375
-1.9257605075836182 -2.6751062870025635 17.995590209960938
-1.9257606267929077 -2.674962043762207 17.99561309814453
-1.9257569313049316 -2.6750941276550293 17.995590209960938
-1.9257265329360962 -2.6769213676452637 17.995227813720703
-1.9257547855377197 -2.6749706268310547 17.995620727539062
-1.9257539510726929 -2.6750969886779785 17.995615005493164
-1.925705075263977 -2.677126407623291 17.995075225830078
-1.925705075263977 -2.677126407623291 17.995075225830078
-1.9257481098175049 -2.6750400066375732 17.9956111907959
-1.9257484674453735 -2.6750903129577637 17.995622634887695
-1.9257194995880127 -2.676884174346924 17.995267868041992
-1.925719976425171 -2.676884889602661 17.995277404785156
-1.9257407188415527 -2.675107002258301 17.99561882019043
-1.925742268562317 -2.6751439571380615 17.995655059814453
-1.925742268562317 -2.6751439571380615 17.995655059814453
-1.92571222782135 -2.6768836975097656 17.99530029296875
-1.9257410764694214 -2.6750783920288086 17.995656967163086
-1.9257174730300903 -2.6768364906311035 17.995370864868164
-1.9257439374923706 -2.675192356109619 17.995704650878906
-1.9257164001464844 -2.676036834716797 17.995418548583984
-1.9257172346115112 -2.676002264022827 17.995450973510742
-1.925732970237732 -2.675002098083496 17.995698928833008
-1.9257010221481323 -2.6768949031829834 17.995346069335938
-1.92571222782135 -2.675924777984619 17.995527267456055
-1.92571222782135 -2.675924777984619 17.995527267456055
-1.9257242679595947 -2.675163745880127 17.99570655822754
-1.9257230758666992 -2.675067186355591 17.995731353759766
-1.925722599029541 -2.6751272678375244 17.99573516845703
-1.9256905317306519 -2.6768929958343506 17.995372772216797
-1.9257210493087769 -2.6750528812408447 17.995750427246094
-1.9256855249404907 -2.6774001121520996 17.995319366455078
-1.9256986379623413 -2.675950765609741 17.99553680419922
-1.9256986379623413 -2.675950765609741 17.99553680419922
-1.9257164001464844 -2.6751155853271484 17.995758056640625
-1.925681471824646 -2.677103281021118 17.99535369873047
-1.9257155656814575 -2.675018787384033 17.995777130126953
-1.925715446472168 -2.6750192642211914 17.995779037475586
-1.925710916519165 -2.675201892852783 17.995738983154297
-1.9257110357284546 -2.675140380859375 17.995742797851562
-1.9257128238677979 -2.675028085708618 17.995769500732422
-1.9257134199142456 -2.6750106811523438 17.995790481567383
-1.9257103204727173 -2.675107479095459 17.995758056640625
-1.9256751537322998 -2.6770992279052734 17.995380401611328
-1.925705909729004 -2.67501163482666 17.995792388916016
-1.9257025718688965 -2.6751115322113037 17.995765686035156
-1.9257023334503174 -2.6750054359436035 17.99578285217285
-1.9257022142410278 -2.6749894618988037 17.995798110961914
-1.9256514310836792 -2.6756627559661865 17.99578285217285
-1.92564857006073 -2.6755924224853516 17.995847702026367
-1.925645351409912 -2.675689935684204 17.995840072631836
-1.925646185874939 -2.67568039894104 17.99586296081543
-1.9256436824798584 -2.6756880283355713 17.99587059020996
-1.9256088733673096 -2.6776463985443115 17.995513916015625
-1.9256099462509155 -2.6774842739105225 17.995555877685547
-1.9256083965301514 -2.6774709224700928 17.995553970336914
-1.9256107807159424 -2.6772968769073486 17.99559783935547
-1.9256254434585571 -2.6756465435028076 17.99581527709961
-1.9256318807601929 -2.6757025718688965 17.99587631225586
-1.9256318807601929 -2.6757025718688965 17.995878219604492
-1.9256035089492798 -2.6776556968688965 17.995540618896484
-1.9256314039230347 -2.6757147312164307 17.995891571044922
-1.9256314039230347 -2.6757147312164307 17.995891571044922
-1.9256188869476318 -2.6756343841552734 17.995864868164062
-1.9256093502044678 -2.6762452125549316 17.99582290649414
-1.9256083965301514 -2.6762378215789795 17.995817184448242
-1.9256067276000977 -2.6762516498565674 17.995820999145508
-1.9256072044372559 -2.6762313842773438 17.995832443237305
-1.9256147146224976 -2.6757419109344482 17.99597930908203
-1.925600528717041 -2.6762406826019287 17.995832443237305
-1.925600528717041 -2.6762406826019287 17.995832443237305
-1.9256051778793335 -2.675685167312622 17.995925903320312
-1.9256051778793335 -2.675685167312622 17.995925903320312
-1.925600528717041 -2.6762239933013916 17.995878219604492
-1.9255967140197754 -2.6762611865997314 17.9958553314209
-1.925599455833435 -2.6757020950317383 17.99595069885254
-1.9255927801132202 -2.676293134689331 17.995885848999023
-1.9255956411361694 -2.675713539123535 17.995975494384766
-1.9255956411361694 -2.675713539123535 17.995975494384766
-1.9255889654159546 -2.6762945652008057 17.995887756347656
-1.9255889654159546 -2.6762945652008057 17.995887756347656
-1.9255987405776978 -2.6757538318634033 17.996013641357422
-1.925583004951477 -2.676285743713379 17.99589729309082
-1.925591230392456 -2.6759274005889893 17.995990753173828
-1.9255858659744263 -2.6759655475616455 17.995981216430664
-1.9255858659744263 -2.6759655475616455 17.995981216430664
-1.9255876541137695 -2.6757097244262695 17.996015548706055
-1.925581932067871 -2.6759610176086426 17.99601936340332
-1.9255698919296265 -2.6762070655822754 17.995912551879883
-1.9255698919296265 -2.6762070655822754 17.995912551879883
-1.9255712032318115 -2.676264762878418 17.995939254760742
-1.92556893825531 -2.6761534214019775 17.99594497680664
-1.9255585670471191 -2.676234722137451 17.995891571044922
-1.9255549907684326 -2.676208734512329 17.995899200439453
-1.925558090209961 -2.676159143447876 17.99593162536621
-1.925559401512146 -2.675981283187866 17.995983123779297
-1.925552248954773 -2.6761608123779297 17.99592399597168
-1.9255478382110596 -2.676208257675171 17.99591827392578
-1.9255472421646118 -2.6762008666992188 17.995914459228516
-1.9255486726760864 -2.6761622428894043 17.99595069885254
-1.92554771900177 -2.6761083602905273 17.995960235595703
-1.925542950630188 -2.676196336746216 17.995912551879883
-1.9255492687225342 -2.67602276802063 17.995988845825195
-1.9255359172821045 -2.6776134967803955 17.995807647705078
-1.9255417585372925 -2.676210641860962 17.995920181274414
-1.9255390167236328 -2.6762261390686035 17.99592399597168
-1.9255397319793701 -2.6761927604675293 17.995933532714844
-1.9255435466766357 -2.67610764503479 17.99599838256836
-1.9255406856536865 -2.676177501678467 17.995975494384766
-1.9255362749099731 -2.6762425899505615 17.99594497680664
-1.9255352020263672 -2.676234006881714 17.99593734741211
-1.9255365133285522 -2.6762497425079346 17.99595069885254
-1.9255379438400269 -2.6761646270751953 17.995973587036133
-1.925534963607788 -2.676226854324341 17.995946884155273
-1.9255332946777344 -2.6762168407440186 17.995956420898438
-1.9255198240280151 -2.6776156425476074 17.9958553314209
-1.9254721403121948 -2.6775853633880615 17.99605369567871
-1.9254138469696045 -2.677579641342163 17.996252059936523
-1.925394892692566 -2.6775593757629395 17.99634552001953
-1.9253898859024048 -2.677551746368408 17.99639129638672
-1.9253829717636108 -2.6775529384613037 17.996395111083984
-1.9253829717636108 -2.6775529384613037 17.996395111083984
-1.925367832183838 -2.6775505542755127 17.9964542388916
-1.9253617525100708 -2.677548408508301 17.996477127075195
-1.9253418445587158 -2.677539587020874 17.996564865112305
-1.9253430366516113 -2.6775217056274414 17.996578216552734
-1.9253393411636353 -2.6775295734405518 17.99660301208496
-1.9253393411636353 -2.6775295734405518 17.99660301208496
-1.9253348112106323 -2.6775331497192383 17.996578216552734
-1.925339698791504 -2.6771440505981445 17.99667739868164
-1.9253342151641846 -2.6773440837860107 17.996627807617188
-1.925336241722107 -2.67720103263855 17.99665641784668
-1.925336241722107 -2.67720103263855 17.99665641784668
-1.925336241722107 -2.6772212982177734 17.996658325195312
-1.925336241722107 -2.6772212982177734 17.996658325195312
-1.925330400466919 -2.6773531436920166 17.996623992919922
-1.9253349304199219 -2.6771414279937744 17.99668312072754
-1.9253349304199219 -2.6771414279937744 17.99668312072754
-1.9253308773040771 -2.6772096157073975 17.996660232543945
-1.925329327583313 -2.6771466732025146 17.99667739868164
