ply
format ascii 1.0
element vertex 77
property float x
property float y
property float z
end_header
-0.049849916249513626 -0.15784063935279846 0.564296305179596
-0.049849916249513626 -0.15784063935279846 0.564296305179596
-0.04984968900680542 -0.15784507989883423 0.5642973184585571
-0.04984920099377632 -0.15786543488502502 0.564303457736969
-0.049849651753902435 -0.15784427523612976 0.5642972588539124
-0.049849651753902435 -0.15784427523612976 0.5642972588539124
-0.049849603325128555 -0.1578434854745865 0.5642971396446228
-0.049848977476358414 -0.1578684002161026 0.5643042922019958
-0.04984947293996811 -0.1578422337770462 0.5642971992492676
-0.049849528819322586 -0.1578405648469925 0.5642968416213989
-0.049849435687065125 -0.15784189105033875 0.5642971992492676
-0.049849435687065125 -0.15784189105033875 0.5642971992492676
-0.04984934628009796 -0.15784330666065216 0.5642975568771362
-0.049849361181259155 -0.1578424572944641 0.5642974376678467
-0.04984919726848602 -0.157844677567482 0.5642979741096497
-0.04984861984848976 -0.15786564350128174 0.5643040537834167
-0.04984918236732483 -0.15784183144569397 0.5642976760864258
-0.04984906315803528 -0.15784424543380737 0.5642980933189392
-0.04984906315803528 -0.15784424543380737 0.5642980933189392
-0.04984913021326065 -0.1578425168991089 0.5642977952957153
-0.049848973751068115 -0.15784335136413574 0.5642982125282288
-0.049849044531583786 -0.1578414887189865 0.5642978549003601
-0.049848850816488266 -0.15784414112567902 0.5642986297607422
-0.04984806850552559 -0.1578662395477295 0.5643050074577332
-0.049848008900880814 -0.15786784887313843 0.5643054246902466
-0.04984685778617859 -0.15788188576698303 0.564304769039154
-0.049846552312374115 -0.1578759253025055 0.5643026828765869
-0.049846455454826355 -0.15787653625011444 0.5643030405044556
-0.04984644427895546 -0.15787558257579803 0.5643028020858765
-0.0498463474214077 -0.15787629783153534 0.5643032193183899
-0.04984629154205322 -0.15787413716316223 0.5643028616905212
-0.049846064299345016 -0.15787523984909058 0.5643035173416138
-0.04984590783715248 -0.15787486732006073 0.5643037557601929
-0.04984588176012039 -0.15787437558174133 0.5643037557601929
-0.049845803529024124 -0.15787482261657715 0.564303994178772
-0.049845755100250244 -0.15787649154663086 0.5643044114112854
-0.04984571039676666 -0.15787425637245178 0.5643040537834167
-0.049845632165670395 -0.1578739732503891 0.5643041729927063
-0.04984556511044502 -0.15787585079669952 0.5643046498298645
-0.04984565079212189 -0.1578732579946518 0.564303994178772
-0.04984547942876816 -0.15787328779697418 0.5643043518066406
-0.04984552040696144 -0.1578828990459442 0.56432044506073
-0.04984552040696144 -0.1578828990459442 0.56432044506073
-0.04984510689973831 -0.15789136290550232 0.5643227100372314
-0.049845244735479355 -0.1578870266675949 0.5643216967582703
-0.04984533041715622 -0.15788288414478302 0.5643207430839539
-0.04984533041715622 -0.15788288414478302 0.5643207430839539
-0.049841683357954025 -0.1579403281211853 0.5643423795700073
-0.04984166473150253 -0.15793970227241516 0.5643424391746521
-0.049841560423374176 -0.1579400599002838 0.5643425583839417
-0.04984143003821373 -0.157940074801445 0.564342737197876
-0.04984143003821373 -0.157940074801445 0.564342737197876
-0.049841541796922684 -0.15793800354003906 0.5643427968025208
-0.04984133690595627 -0.15793941915035248 0.5643429756164551
-0.04984127730131149 -0.1579398512840271 0.5643429756164551
-0.04984127730131149 -0.1579398512840271 0.5643429756164551
-0.04984120652079582 -0.15794047713279724 0.5643430948257446
-0.049841295927762985 -0.15793755650520325 0.5643431544303894
-0.049841005355119705 -0.1579391211271286 0.5643435120582581
-0.04984094947576523 -0.15793964266777039 0.5643435120582581
-0.04984164610505104 -0.15787597000598907 0.5643133521080017
-0.04984084516763687 -0.1579398512840271 0.5643436908721924
-0.049841493368148804 -0.15787547826766968 0.5643137693405151
-0.04984079673886299 -0.15793736279010773 0.5643439292907715
-0.04984144866466522 -0.15787369012832642 0.5643135905265808
-0.04984140768647194 -0.15787294507026672 0.5643135905265808
-0.049840714782476425 -0.15793609619140625 0.5643441677093506
-0.04984059929847717 -0.15793640911579132 0.5643443465232849
-0.04984121769666672 -0.15787333250045776 0.5643141269683838
-0.04984110966324806 -0.15787386894226074 0.5643144249916077
-0.049840446561574936 -0.15793582797050476 0.5643446445465088
-0.049841053783893585 -0.15787425637245178 0.5643146634101868
-0.04984094575047493 -0.1578744500875473 0.5643150210380554
-0.049840815365314484 -0.15787504613399506 0.5643154382705688
-0.04984072595834732 -0.15787461400032043 0.5643154978752136
-0.0498385988175869 -0.1578756421804428 0.5643215775489807
-0.04983443021774292 -0.15787437558174133 0.5643356442451477
