ply
format ascii 1.0
element vertex 268
property float x
property float y
property float z
end_header
-0.12555202841758728 -0.2368321716785431 1.1995686292648315
-0.12550169229507446 -0.23683641850948334 1.199568510055542
-0.12550169229507446 -0.23683641850948334 1.199568510055542
-0.12550057470798492 -0.2367061972618103 1.1995537281036377
-0.12550035119056702 -0.23670794069766998 1.1995539665222168
-0.12550035119056702 -0.23670794069766998 1.1995539665222168
-0.1255001425743103 -0.23670610785484314 1.1995539665222168
-0.12550008296966553 -0.23670539259910583 1.1995538473129272
-0.12550008296966553 -0.23670539259910583 1.1995538473129272
-0.12549982964992523 -0.23670589923858643 1.1995540857315063
-0.1255004107952118 -0.2367091029882431 1.1995598077774048
-0.12549956142902374 -0.23670640587806702 1.199554204940796
-0.1254994422197342 -0.23678165674209595 1.199562668800354
-0.12550006806850433 -0.236708402633667 1.1995599269866943
-0.1254994422197342 -0.2367068976163864 1.199554443359375
-0.12550002336502075 -0.2367090880870819 1.1995600461959839
-0.1254989504814148 -0.23675872385501862 1.1995573043823242
-0.12549923360347748 -0.23671072721481323 1.1995549201965332
-0.12549923360347748 -0.23671072721481323 1.1995549201965332
-0.12549911439418793 -0.23676830530166626 1.1995604038238525
-0.1254991888999939 -0.23670364916324615 1.1995540857315063
-0.1254991888999939 -0.23670364916324615 1.1995540857315063
-0.12549909949302673 -0.23670673370361328 1.1995545625686646
-0.12549901008605957 -0.23670944571495056 1.1995549201965332
-0.12549901008605957 -0.23670944571495056 1.1995549201965332
-0.1254986673593521 -0.23675978183746338 1.1995576620101929
-0.12549911439418793 -0.23683542013168335 1.1995705366134644
-0.12549881637096405 -0.23676879703998566 1.1995606422424316
-0.12549884617328644 -0.23677779734134674 1.1995620727539062
-0.12549889087677002 -0.2367088347673416 1.1995549201965332
-0.12549881637096405 -0.2367057204246521 1.1995545625686646
-0.12549881637096405 -0.2367057204246521 1.1995545625686646
-0.1254987269639969 -0.23677906394004822 1.199562430381775
-0.12549874186515808 -0.23671026527881622 1.1995551586151123
-0.12549874186515808 -0.23671026527881622 1.1995551586151123
-0.12549887597560883 -0.236837700009346 1.1995712518692017
-0.12549836933612823 -0.23675961792469025 1.1995580196380615
-0.12549863755702972 -0.2367085963487625 1.1995550394058228
-0.12549850344657898 -0.2367689311504364 1.1995606422424316
-0.12549851834774017 -0.2367761880159378 1.1995619535446167
-0.1254984736442566 -0.23676790297031403 1.1995606422424316
-0.12549856305122375 -0.23670566082000732 1.1995548009872437
-0.12549838423728943 -0.23677809536457062 1.199562430381775
-0.125498428940773 -0.23670616745948792 1.1995549201965332
-0.125498428940773 -0.23670616745948792 1.1995549201965332
-0.12549857795238495 -0.2368348091840744 1.199570894241333
-0.12549832463264465 -0.23670563101768494 1.1995549201965332
-0.12549832463264465 -0.23670563101768494 1.1995549201965332
-0.12549832463264465 -0.2367035299539566 1.199554681777954
-0.12549830973148346 -0.2367079108953476 1.1995552778244019
-0.12549827992916107 -0.23670503497123718 1.1995549201965332
-0.12549827992916107 -0.23670503497123718 1.1995549201965332
-0.1254982054233551 -0.23670652508735657 1.1995551586151123
-0.1254982054233551 -0.23670652508735657 1.1995551586151123
-0.12549783289432526 -0.2367572784423828 1.199557900428772
-0.12549814581871033 -0.2367100566625595 1.1995556354522705
-0.12549825012683868 -0.23683509230613708 1.199571132659912
-0.12549825012683868 -0.2368355393409729 1.1995712518692017
-0.12549825012683868 -0.2368355393409729 1.1995712518692017
-0.12549802660942078 -0.23670963943004608 1.1995556354522705
-0.12549813091754913 -0.23683592677116394 1.1995714902877808
-0.125497967004776 -0.2367076575756073 1.1995553970336914
-0.1254979521036148 -0.2367061972618103 1.1995552778244019
-0.12549792230129242 -0.2367100864648819 1.19955575466156
-0.12549792230129242 -0.2367100864648819 1.19955575466156
-0.12549784779548645 -0.2367088496685028 1.1995556354522705
-0.12549784779548645 -0.2367088496685028 1.1995556354522705
-0.1254977583885193 -0.23676390945911407 1.1995617151260376
-0.12549778819084167 -0.23670940101146698 1.1995556354522705
-0.12549778819084167 -0.23670940101146698 1.1995556354522705
-0.12549778819084167 -0.23670940101146698 1.1995556354522705
-0.1254977583885193 -0.23670737445354462 1.199555516242981
-0.1254977583885193 -0.23670737445354462 1.199555516242981
-0.12549741566181183 -0.23675769567489624 1.1995584964752197
-0.12549741566181183 -0.23675914108753204 1.1995587348937988
-0.1254977285861969 -0.23670552670955658 1.199555516242981
-0.12549738585948944 -0.23675699532032013 1.1995584964752197
-0.1254977136850357 -0.23670552670955658 1.1995553970336914
-0.12549757957458496 -0.23670344054698944 1.1995551586151123
-0.12549757957458496 -0.23670344054698944 1.1995551586151123
-0.12549757957458496 -0.23670761287212372 1.19955575466156
-0.12549757957458496 -0.23670761287212372 1.19955575466156
-0.125497505068779 -0.23670709133148193 1.19955575466156
-0.12549766898155212 -0.23683704435825348 1.199571967124939
-0.12549740076065063 -0.2367049604654312 1.1995556354522705
-0.12549737095832825 -0.23671014606952667 1.1995562314987183
-0.12549737095832825 -0.23670737445354462 1.1995559930801392
-0.12549751996994019 -0.23683787882328033 1.1995723247528076
-0.1254972219467163 -0.23670920729637146 1.1995564699172974
-0.1254972219467163 -0.23670920729637146 1.1995564699172974
-0.1254972219467163 -0.2367076724767685 1.1995561122894287
-0.1254972219467163 -0.23671051859855652 1.199556589126587
-0.1254972219467163 -0.23671051859855652 1.199556589126587
-0.12549687922000885 -0.23675774037837982 1.199558973312378
-0.12549717724323273 -0.2367061823606491 1.1995559930801392
-0.1254967898130417 -0.2367611527442932 1.1995596885681152
-0.1254967451095581 -0.2367585003376007 1.199559211730957
-0.1254967451095581 -0.2367585003376007 1.199559211730957
-0.12549705803394318 -0.23670800030231476 1.1995562314987183
-0.12549693882465363 -0.23670364916324615 1.1995558738708496
-0.12549655139446259 -0.2367580533027649 1.1995593309402466
-0.12549687922000885 -0.2367083579301834 1.199556589126587
-0.12549647688865662 -0.23675760626792908 1.1995594501495361
-0.12549670040607452 -0.23670944571495056 1.199556827545166
-0.12549681961536407 -0.2368352711200714 1.1995724439620972
-0.12549632787704468 -0.23675817251205444 1.1995594501495361
-0.1254962533712387 -0.23675720393657684 1.1995594501495361
-0.1254967451095581 -0.2368377149105072 1.1995729207992554
-0.12549659609794617 -0.23670771718025208 1.199556827545166
-0.12549659609794617 -0.23670771718025208 1.199556827545166
-0.12549620866775513 -0.23675602674484253 1.1995593309402466
-0.1254965215921402 -0.23670431971549988 1.1995563507080078
-0.12549665570259094 -0.23683422803878784 1.1995724439620972
-0.1254965215921402 -0.236708402633667 1.1995569467544556
-0.1254965215921402 -0.236708402633667 1.1995569467544556
-0.1254964917898178 -0.23670507967472076 1.1995564699172974
-0.12549643218517303 -0.2367074340581894 1.199556827545166
-0.125496044754982 -0.23676009476184845 1.1995600461959839
-0.1254962980747223 -0.23670779168605804 1.1995570659637451
-0.1254962682723999 -0.23670846223831177 1.1995571851730347
-0.1254962682723999 -0.23670516908168793 1.199556827545166
-0.1254962533712387 -0.23671144247055054 1.1995575428009033
-0.1254958212375641 -0.2367560863494873 1.1995595693588257
-0.12549631297588348 -0.23683679103851318 1.199573278427124
-0.12549614906311035 -0.23670752346515656 1.1995571851730347
-0.12549611926078796 -0.2367081344127655 1.1995573043823242
-0.12549611926078796 -0.2367081344127655 1.1995573043823242
-0.12549623847007751 -0.23683780431747437 1.1995735168457031
-0.12549608945846558 -0.23671084642410278 1.1995577812194824
-0.12549598515033722 -0.23670853674411774 1.1995576620101929
-0.12549597024917603 -0.23670528829097748 1.1995571851730347
-0.12549592554569244 -0.23670686781406403 1.1995574235916138
-0.12549591064453125 -0.23670440912246704 1.1995571851730347
-0.12549591064453125 -0.23670755326747894 1.1995576620101929
-0.1254958063364029 -0.23671039938926697 1.199557900428772
-0.12549588084220886 -0.23683738708496094 1.1995737552642822
-0.12549588084220886 -0.23683738708496094 1.1995737552642822
-0.12549585103988647 -0.23683488368988037 1.199573278427124
-0.12549574673175812 -0.2367037534713745 1.1995571851730347
-0.12549574673175812 -0.23670589923858643 1.1995575428009033
-0.12549568712711334 -0.23671077191829681 1.1995582580566406
-0.12549562752246857 -0.23671075701713562 1.1995582580566406
-0.12549573183059692 -0.2368352860212326 1.1995735168457031
-0.12549558281898499 -0.23683962225914001 1.19957435131073
-0.12549540400505066 -0.23670391738414764 1.199557900428772
-0.12549541890621185 -0.2367054671049118 1.1995582580566406
-0.1254952996969223 -0.2367047369480133 1.1995582580566406
-0.1254948377609253 -0.23675958812236786 1.1995612382888794
-0.12549525499343872 -0.23683618009090424 1.1995741128921509
-0.12549510598182678 -0.23683983087539673 1.1995748281478882
-0.1254950314760208 -0.23683907091617584 1.1995747089385986
-0.12549500167369843 -0.23683655261993408 1.19957435131073
-0.12549497187137604 -0.23683695495128632 1.1995744705200195
-0.12549495697021484 -0.23683764040470123 1.1995744705200195
-0.1254948079586029 -0.23683759570121765 1.1995748281478882
-0.12549443542957306 -0.23683354258537292 1.1995744705200195
-0.1254938840866089 -0.236833393573761 1.1995749473571777
-0.12549346685409546 -0.2368372231721878 1.1995757818222046
-0.12549155950546265 -0.23683340847492218 1.1995770931243896
-0.12549059092998505 -0.23675672709941864 1.1995646953582764
-0.12548990547657013 -0.23683959245681763 1.1995797157287598
-0.12548868358135223 -0.23683838546276093 1.1995806694030762
-0.1254885494709015 -0.23683875799179077 1.1995809078216553
-0.12548749148845673 -0.236834317445755 1.1995811462402344
-0.12548691034317017 -0.23683930933475494 1.199582576751709
-0.12548620998859406 -0.2367611974477768 1.1995697021484375
-0.1254865825176239 -0.2368384450674057 1.199582815170288
-0.1254865825176239 -0.2368384450674057 1.199582815170288
-0.12548598647117615 -0.23676107823848724 1.1995699405670166
-0.12548571825027466 -0.2367604672908783 1.1995701789855957
-0.12548606097698212 -0.23683427274227142 1.1995826959609985
-0.12548547983169556 -0.23675848543643951 1.1995700597763062
-0.1254853755235672 -0.23675751686096191 1.1995700597763062
-0.1254851520061493 -0.2367563396692276 1.1995700597763062
-0.1254851520061493 -0.2367563396692276 1.1995700597763062
-0.12548509240150452 -0.23675815761089325 1.1995702981948853
-0.12548507750034332 -0.23675702512264252 1.1995701789855957
-0.12548504769802094 -0.236759215593338 1.199570655822754
-0.12548524141311646 -0.23683875799179077 1.1995842456817627
-0.12548482418060303 -0.23675601184368134 1.1995704174041748
-0.12548474967479706 -0.2367580533027649 1.1995707750320435
-0.12548434734344482 -0.2367585301399231 1.199571132659912
-0.12548407912254333 -0.23675890266895294 1.1995717287063599
-0.12548373639583588 -0.23675991594791412 1.1995720863342285
-0.12548336386680603 -0.2367580235004425 1.199572205543518
-0.12548336386680603 -0.2367580235004425 1.199572205543518
-0.12548372149467468 -0.23683787882328033 1.1995855569839478
-0.12548311054706573 -0.23676232993602753 1.199573278427124
-0.12548308074474335 -0.23676127195358276 1.1995731592178345
-0.1254832148551941 -0.23683743178844452 1.1995861530303955
-0.1254827380180359 -0.2368335872888565 1.199586033821106
-0.1254824697971344 -0.2368352860212326 1.1995866298675537
-0.12548239529132843 -0.23683865368366241 1.199587106704712
-0.1254817396402359 -0.23675565421581268 1.1995736360549927
-0.12548179924488068 -0.23683655261993408 1.1995874643325806
-0.1254778802394867 -0.23676209151744843 1.1995790004730225
-0.12547758221626282 -0.2367621809244156 1.1995792388916016
-0.12547743320465088 -0.2367614209651947 1.1995793581008911
-0.12547717988491058 -0.23683899641036987 1.199593186378479
-0.12547694146633148 -0.2368360310792923 1.1995928287506104
-0.1254769116640091 -0.2368370145559311 1.1995929479599
-0.12547656893730164 -0.23683568835258484 1.199593186378479
-0.12547588348388672 -0.23683324456214905 1.1995937824249268
-0.12547580897808075 -0.23683775961399078 1.199594497680664
-0.1254754215478897 -0.23675552010536194 1.1995806694030762
-0.1254757046699524 -0.23683695495128632 1.199594497680664
-0.12547510862350464 -0.2368357926607132 1.199595332145691
-0.12547162175178528 -0.23668208718299866 1.199573278427124
-0.12547087669372559 -0.236678346991539 1.199573278427124
-0.12547048926353455 -0.23685315251350403 1.1996034383773804
-0.12547001242637634 -0.23685355484485626 1.1996042728424072
-0.12546977400779724 -0.2368532419204712 1.1996042728424072
-0.12546975910663605 -0.23684608936309814 1.1996049880981445
-0.12546832859516144 -0.23683293163776398 1.1996029615402222
-0.1254682093858719 -0.2368527203798294 1.1996058225631714
-0.12546686828136444 -0.2366751730442047 1.1995781660079956
-0.12546667456626892 -0.23668113350868225 1.1995794773101807
-0.12546652555465698 -0.23668023943901062 1.1995793581008911
-0.1254664659500122 -0.23668138682842255 1.1995797157287598
-0.1254662424325943 -0.23685331642627716 1.1996080875396729
-0.12546490132808685 -0.2366836816072464 1.1995823383331299
-0.12546338140964508 -0.23668207228183746 1.1995842456817627
-0.12546344101428986 -0.23676066100597382 1.199596881866455
-0.1254628598690033 -0.23668277263641357 1.1995850801467896
-0.12546050548553467 -0.23683646321296692 1.19961416721344
-0.12546002864837646 -0.23683829605579376 1.1996151208877563
-0.12545666098594666 -0.23668265342712402 1.1995943784713745
-0.1254560500383377 -0.23668381571769714 1.1995954513549805
-0.1254553347826004 -0.23683317005634308 1.199621319770813
-0.1254545897245407 -0.23668427765369415 1.199597954750061
-0.12545453011989594 -0.23668172955513 1.1995973587036133
-0.12545418739318848 -0.23667989671230316 1.199597716331482
-0.12545418739318848 -0.23667989671230316 1.199597716331482
-0.12545406818389893 -0.23668378591537476 1.1995985507965088
-0.12545406818389893 -0.23668378591537476 1.1995985507965088
-0.12545403838157654 -0.23668305575847626 1.1995985507965088
-0.12545375525951385 -0.236836239695549 1.1996243000030518
-0.12545372545719147 -0.23683445155620575 1.199623942375183
-0.12545372545719147 -0.23683445155620575 1.199623942375183
-0.12545359134674072 -0.2368350476026535 1.1996241807937622
-0.12545247375965118 -0.236839160323143 1.1996265649795532
-0.12545183300971985 -0.23683203756809235 1.1996262073516846
-0.12545174360275269 -0.2366837114095688 1.1996023654937744
-0.1254514753818512 -0.23668193817138672 1.199602484703064
-0.12545135617256165 -0.23668141663074493 1.199602723121643
-0.1254512220621109 -0.23667989671230316 1.1996026039123535
-0.12545105814933777 -0.23668226599693298 1.1996033191680908
-0.12545086443424225 -0.2366846650838852 1.1996042728424072
-0.1254461258649826 -0.23669646680355072 1.1996135711669922
-0.12544353306293488 -0.23672418296337128 1.1996207237243652
-0.125442773103714 -0.23672422766685486 1.1996221542358398
-0.12544189393520355 -0.23672743141651154 1.1996248960494995
-0.12544035911560059 -0.2369014322757721 1.1996582746505737
-0.12543995678424835 -0.23672883212566376 1.199629306793213
-0.12543995678424835 -0.23672883212566376 1.199629306793213
-0.12543977797031403 -0.23672163486480713 1.1996283531188965
-0.12543916702270508 -0.23672860860824585 1.1996309757232666
-0.12543880939483643 -0.2367289513349533 1.199631929397583
-0.1254384070634842 -0.2367260903120041 1.1996331214904785
-0.12543708086013794 -0.2367616891860962 1.1996382474899292
-0.12543703615665436 -0.23676623404026031 1.1996392011642456
-0.1254369616508484 -0.2367674857378006 1.1996395587921143
-0.12543673813343048 -0.2367667555809021 1.1996396780014038
-0.12543664872646332 -0.23676620423793793 1.1996397972106934
-0.12543633580207825 -0.2367565929889679 1.1996389627456665
-0.12543632090091705 -0.23675748705863953 1.1996392011642456
-0.1254284828901291 -0.23690244555473328 1.1996828317642212
-0.12542815506458282 -0.23690220713615417 1.1996835470199585
