ply
format ascii 1.0
element vertex 354
property float x
property float y
property float z
end_header
-0.15717393159866333 -0.28959834575653076 1.4707258939743042
-0.15717288851737976 -0.2896019220352173 1.4707270860671997
-0.157173290848732 -0.2896166443824768 1.4707306623458862
-0.15717315673828125 -0.28961464762687683 1.470730185508728
-0.1571727991104126 -0.28960785269737244 1.4707286357879639
-0.15717269480228424 -0.2896059453487396 1.4707281589508057
-0.15717269480228424 -0.2896059453487396 1.4707281589508057
-0.15717260539531708 -0.2896021902561188 1.4707274436950684
-0.1571725755929947 -0.28960350155830383 1.470727562904358
-0.1571725755929947 -0.28960350155830383 1.470727562904358
-0.1571725755929947 -0.28960710763931274 1.4707286357879639
-0.15717293322086334 -0.28962576389312744 1.4707330465316772
-0.15717332065105438 -0.28964129090309143 1.4707368612289429
-0.15717363357543945 -0.28965309262275696 1.4707396030426025
-0.15717217326164246 -0.2896033227443695 1.4707279205322266
-0.15717215836048126 -0.2896033227443695 1.4707279205322266
-0.1571720540523529 -0.28960123658180237 1.4707273244857788
-0.157172292470932 -0.28961360454559326 1.470730185508728
-0.1571725308895111 -0.28962162137031555 1.4707322120666504
-0.1571725308895111 -0.28962162137031555 1.4707322120666504
-0.15717241168022156 -0.2896174192428589 1.4707313776016235
-0.1571720540523529 -0.28960588574409485 1.4707286357879639
-0.1571720689535141 -0.2896072268486023 1.470728874206543
-0.15717296302318573 -0.2896396219730377 1.4707365036010742
-0.1571723222732544 -0.28962287306785583 1.4707326889038086
-0.1571718454360962 -0.28960809111595154 1.4707292318344116
-0.15717275440692902 -0.2896410822868347 1.4707369804382324
-0.15717199444770813 -0.28961557149887085 1.4707311391830444
-0.15717172622680664 -0.28961220383644104 1.4707303047180176
-0.15717221796512604 -0.2896345257759094 1.4707356691360474
-0.15717197954654694 -0.28962910175323486 1.4707343578338623
-0.15717139840126038 -0.28960952162742615 1.4707297086715698
-0.15717178583145142 -0.28962332010269165 1.4707330465316772
-0.15717217326164246 -0.2896375358104706 1.4707363843917847
-0.15717171132564545 -0.2896219491958618 1.4707326889038086
-0.15717142820358276 -0.28961244225502014 1.4707305431365967
-0.15717177093029022 -0.2896265387535095 1.4707337617874146
-0.15717211365699768 -0.2896386682987213 1.4707368612289429
-0.1571715921163559 -0.28962570428848267 1.470733642578125
-0.15717174112796783 -0.28963109850883484 1.4707350730895996
-0.15717165172100067 -0.28962916135787964 1.470734715461731
-0.15717165172100067 -0.28962916135787964 1.470734715461731
-0.15717092156410217 -0.2896066904067993 1.4707293510437012
-0.15717092156410217 -0.2896066904067993 1.4707293510437012
-0.1571713536977768 -0.28962329030036926 1.4707332849502563
-0.15717200934886932 -0.2896457016468048 1.4707385301589966
-0.15717200934886932 -0.2896457016468048 1.4707385301589966
-0.1571718007326126 -0.2896413803100586 1.4707375764846802
-0.15717150270938873 -0.2896316349506378 1.4707351922988892
-0.15717150270938873 -0.2896316349506378 1.4707351922988892
-0.157171368598938 -0.28962820768356323 1.4707344770431519
-0.15717177093029022 -0.2896426022052765 1.4707378149032593
-0.15717218816280365 -0.28966185450553894 1.4707425832748413
-0.15717114508152008 -0.2896285355091095 1.4707345962524414
-0.15717101097106934 -0.2896248400211334 1.4707337617874146
-0.15717150270938873 -0.28964143991470337 1.4707378149032593
-0.15717071294784546 -0.2896171510219574 1.4707319736480713
-0.15717153251171112 -0.28964513540267944 1.4707386493682861
-0.15717124938964844 -0.2896392345428467 1.4707372188568115
-0.15717098116874695 -0.2896330952644348 1.4707359075546265
-0.15717120468616486 -0.289641797542572 1.4707379341125488
-0.15717078745365143 -0.2896275818347931 1.4707345962524414
-0.15717101097106934 -0.2896468937397003 1.4707393646240234
-0.15717148780822754 -0.2896692752838135 1.4707448482513428
-0.15717074275016785 -0.2896661162376404 1.470744252204895
-0.15717066824436188 -0.28966450691223145 1.4707438945770264
-0.15714167058467865 -0.2895592451095581 1.4707106351852417
-0.15714125335216522 -0.2895616590976715 1.4707111120224
-0.15714074671268463 -0.28956207633018494 1.4707111120224
-0.1571396291255951 -0.28955528140068054 1.4707101583480835
-0.15714120864868164 -0.28960981965065 1.4707237482070923
-0.15714119374752045 -0.28961339592933655 1.4707247018814087
-0.15713931620121002 -0.2895532548427582 1.4707096815109253
-0.15714013576507568 -0.2896014153957367 1.4707221984863281
-0.15711337327957153 -0.2894788086414337 1.4707179069519043
-0.15711349248886108 -0.28948357701301575 1.4707189798355103
-0.1571132391691208 -0.289479523897171 1.4707181453704834
-0.1571132391691208 -0.289479523897171 1.4707181453704834
-0.15711288154125214 -0.2894776463508606 1.4707179069519043
-0.15711288154125214 -0.2894776463508606 1.4707179069519043
-0.1571129709482193 -0.2894817292690277 1.4707188606262207
-0.15711264312267303 -0.2894754409790039 1.4707175493240356
-0.15711264312267303 -0.2894754409790039 1.4707175493240356
-0.1571127474308014 -0.2894822657108307 1.4707192182540894
-0.1571127474308014 -0.2894822657108307 1.4707192182540894
-0.15711413323879242 -0.2895506024360657 1.4707306623458862
-0.15711243450641632 -0.28948020935058594 1.4707188606262207
-0.1571124643087387 -0.2894817590713501 1.4707192182540894
-0.1571124643087387 -0.2894817590713501 1.4707192182540894
-0.15711253881454468 -0.28948646783828735 1.4707204103469849
-0.15711219608783722 -0.2894812822341919 1.470719337463379
-0.1571120321750641 -0.28947776556015015 1.470718502998352
-0.15711192786693573 -0.28947651386260986 1.4707180261611938
-0.15711192786693573 -0.2894817292690277 1.4707196950912476
-0.15711192786693573 -0.2894817292690277 1.4707196950912476
-0.1571115404367447 -0.28947553038597107 1.470718264579773
-0.1571115404367447 -0.28947553038597107 1.470718264579773
-0.15711167454719543 -0.28948137164115906 1.470719814300537
-0.15711161494255066 -0.2894822955131531 1.4707200527191162
-0.15711142122745514 -0.28947967290878296 1.4707194566726685
-0.15711160004138947 -0.28948599100112915 1.470720887184143
-0.15711160004138947 -0.28948599100112915 1.470720887184143
-0.15711139142513275 -0.2894817590713501 1.4707199335098267
-0.15711139142513275 -0.2894817590713501 1.4707199335098267
-0.15711136162281036 -0.28948280215263367 1.4707202911376953
-0.15711137652397156 -0.2894842326641083 1.470720887184143
-0.15711137652397156 -0.2894842326641083 1.470720887184143
-0.15711116790771484 -0.2894778251647949 1.4707192182540894
-0.15711112320423126 -0.28948336839675903 1.4707207679748535
-0.15711097419261932 -0.28947877883911133 1.4707196950912476
-0.15711097419261932 -0.28947877883911133 1.4707196950912476
-0.1571110635995865 -0.2894824147224426 1.4707204103469849
-0.15711085498332977 -0.28948184847831726 1.4707205295562744
-0.1571107804775238 -0.2894803285598755 1.4707201719284058
-0.15711063146591187 -0.28947877883911133 1.4707199335098267
-0.15711082518100739 -0.28948622941970825 1.4707216024398804
-0.15711075067520142 -0.2894831895828247 1.4707210063934326
-0.15711048245429993 -0.28947964310646057 1.4707202911376953
-0.15711034834384918 -0.28947576880455017 1.470719337463379
-0.1571103036403656 -0.2894788980484009 1.4707201719284058
-0.1571102887392044 -0.28947800397872925 1.4707201719284058
-0.1571102887392044 -0.28947800397872925 1.4707201719284058
-0.1571103036403656 -0.2894822657108307 1.4707212448120117
-0.15711036324501038 -0.2894858419895172 1.470721960067749
-0.15711349248886108 -0.28959736227989197 1.4707481861114502
-0.15711036324501038 -0.2894858419895172 1.470721960067749
-0.15711016952991486 -0.2894802689552307 1.470720648765564
-0.15711259841918945 -0.28957292437553406 1.4707415103912354
-0.15711376070976257 -0.2896098792552948 1.4707516431808472
-0.15711253881454468 -0.2895715534687042 1.4707412719726562
-0.15711253881454468 -0.2895715534687042 1.4707412719726562
-0.15710990130901337 -0.2894768714904785 1.4707199335098267
-0.15711243450641632 -0.2895734906196594 1.470741629600525
-0.1571100652217865 -0.2894855737686157 1.4707220792770386
-0.15711326897144318 -0.2896028757095337 1.4707499742507935
-0.15710975229740143 -0.2894798517227173 1.4707207679748535
-0.15710990130901337 -0.2894849181175232 1.4707221984863281
-0.1571098119020462 -0.2894820272922516 1.4707216024398804
-0.15711253881454468 -0.2895832657814026 1.4707444906234741
-0.15711136162281036 -0.2895267903804779 1.4707350730895996
-0.15711331367492676 -0.28960996866226196 1.4707518815994263
-0.15710988640785217 -0.2894878387451172 1.470723271369934
-0.1571096032857895 -0.2894827425479889 1.47072172164917
-0.15710966289043427 -0.289483904838562 1.4707220792770386
-0.1571095883846283 -0.2894846796989441 1.4707223176956177
-0.1571095883846283 -0.2894846796989441 1.4707223176956177
-0.15710946917533875 -0.28948065638542175 1.4707213640213013
-0.1571125090122223 -0.2895917296409607 1.4707468748092651
-0.15711288154125214 -0.28960493206977844 1.4707505702972412
-0.1571120321750641 -0.289579302072525 1.4707436561584473
-0.15710946917533875 -0.28948351740837097 1.4707221984863281
-0.1571129411458969 -0.28960856795310974 1.4707517623901367
-0.15711233019828796 -0.2895898222923279 1.4707465171813965
-0.1571124792098999 -0.28959792852401733 1.470748782157898
-0.15711107850074768 -0.28956249356269836 1.4707372188568115
-0.15710924565792084 -0.2894838750362396 1.4707224369049072
-0.15710924565792084 -0.2894838750362396 1.4707224369049072
-0.15711170434951782 -0.2895768880844116 1.470743179321289
-0.15710914134979248 -0.2894827425479889 1.4707223176956177
-0.15710914134979248 -0.2894827425479889 1.4707223176956177
-0.15710899233818054 -0.2894783616065979 1.4707211256027222
-0.1571115255355835 -0.2895739674568176 1.4707423448562622
-0.15711157023906708 -0.2895778715610504 1.4707435369491577
-0.15711157023906708 -0.2895778715610504 1.4707435369491577
-0.15710900723934174 -0.28948190808296204 1.4707220792770386
-0.15711256861686707 -0.2896099388599396 1.4707520008087158
-0.15711188316345215 -0.2895897924900055 1.4707467555999756
-0.15710905194282532 -0.28948602080345154 1.470723271369934
-0.1571120172739029 -0.2895963191986084 1.4707484245300293
-0.15711216628551483 -0.28960129618644714 1.470749855041504
-0.1571088284254074 -0.2894802689552307 1.470721960067749
-0.1571112424135208 -0.28957292437553406 1.4707423448562622
-0.157108873128891 -0.2894846796989441 1.470723032951355
-0.15711162984371185 -0.28958824276924133 1.4707465171813965
-0.15711168944835663 -0.2895908057689667 1.4707472324371338
-0.15711146593093872 -0.28958237171173096 1.4707452058792114
-0.15711146593093872 -0.28958237171173096 1.4707452058792114
-0.15711146593093872 -0.289585143327713 1.4707456827163696
-0.15711182355880737 -0.289596825838089 1.470748782157898
-0.15711131691932678 -0.2895812690258026 1.4707444906234741
-0.15710845589637756 -0.28947967290878296 1.4707220792770386
-0.15710864961147308 -0.2894861698150635 1.4707237482070923
-0.15711088478565216 -0.28957271575927734 1.4707424640655518
-0.15711140632629395 -0.2895902991294861 1.4707469940185547
-0.157111257314682 -0.2895860970020294 1.4707460403442383
-0.15711160004138947 -0.28959736227989197 1.470749020576477
-0.15711160004138947 -0.28959736227989197 1.470749020576477
-0.1571086049079895 -0.28948718309402466 1.4707239866256714
-0.1571107804775238 -0.28957173228263855 1.4707422256469727
-0.15711116790771484 -0.2895846366882324 1.4707456827163696
-0.15711116790771484 -0.2895846366882324 1.4707456827163696
-0.15710842609405518 -0.2894836366176605 1.470723271369934
-0.15711069107055664 -0.28957343101501465 1.4707428216934204
-0.1571107804775238 -0.28957706689834595 1.4707437753677368
-0.15710824728012085 -0.2894822359085083 1.470723032951355
-0.1571081578731537 -0.28947973251342773 1.4707224369049072
-0.15710793435573578 -0.2894759774208069 1.47072172164917
-0.15710791945457458 -0.28947678208351135 1.4707220792770386
-0.15711113810539246 -0.2895973324775696 1.4707492589950562
-0.157110333442688 -0.28957340121269226 1.4707428216934204
-0.1571102738380432 -0.2895718812942505 1.4707425832748413
-0.15711119771003723 -0.28960198163986206 1.4707506895065308
-0.15711088478565216 -0.2895922064781189 1.470747947692871
-0.15711115300655365 -0.28960123658180237 1.4707504510879517
-0.1571079045534134 -0.2894808053970337 1.470723271369934
-0.15710797905921936 -0.289483904838562 1.4707238674163818
-0.15711095929145813 -0.2895977795124054 1.4707494974136353
-0.15711063146591187 -0.28959181904792786 1.4707480669021606
-0.1571076661348343 -0.28948161005973816 1.4707235097885132
-0.15710771083831787 -0.28948408365249634 1.4707242250442505
-0.15711069107055664 -0.2895958423614502 1.4707492589950562
-0.15710993111133575 -0.28957340121269226 1.470743179321289
-0.1571076512336731 -0.28948846459388733 1.4707252979278564
-0.15710732340812683 -0.28948184847831726 1.470724105834961
-0.15711064636707306 -0.28960540890693665 1.4707518815994263
-0.15711064636707306 -0.28960540890693665 1.4707518815994263
-0.15710747241973877 -0.2894875109195709 1.4707252979278564
-0.1571071296930313 -0.2894805371761322 1.4707239866256714
-0.15710927546024323 -0.2895771861076355 1.4707460403442383
-0.1571088284254074 -0.2895655632019043 1.47074294090271
-0.15710845589637756 -0.2895680069923401 1.4707441329956055
-0.15710976719856262 -0.2896115779876709 1.4707558155059814
-0.1571093201637268 -0.289603590965271 1.47075355052948
-0.15710899233818054 -0.28959688544273376 1.4707521200180054
-0.15710793435573578 -0.28956544399261475 1.470744013786316
-0.15710793435573578 -0.28957608342170715 1.4707459211349487
-0.15710774064064026 -0.28957656025886536 1.4707460403442383
-0.1571069359779358 -0.28955528140068054 1.4707393646240234
-0.15710774064064026 -0.2895781397819519 1.4707467555999756
-0.157107412815094 -0.28957098722457886 1.4707448482513428
-0.15710750222206116 -0.28957486152648926 1.4707459211349487
-0.15710806846618652 -0.2895941436290741 1.4707512855529785
-0.15710772573947906 -0.2895843982696533 1.4707486629486084
-0.15710791945457458 -0.28959280252456665 1.4707510471343994
-0.15710675716400146 -0.2895304560661316 1.470741868019104
-0.1571064293384552 -0.2895539104938507 1.470739483833313
-0.15710726380348206 -0.28957226872444153 1.4707467555999756
-0.15710650384426117 -0.28955766558647156 1.470740556716919
-0.1571061760187149 -0.2895576059818268 1.4707409143447876
-0.15710628032684326 -0.28956156969070435 1.4707417488098145
-0.15710510313510895 -0.28955569863319397 1.4707413911819458
-0.1571049988269806 -0.28952693939208984 1.470741868019104
-0.15710455179214478 -0.2895808219909668 1.4707647562026978
-0.1571047455072403 -0.2895877957344055 1.4707666635513306
-0.15710464119911194 -0.2895851731300354 1.4707658290863037
-0.15710480511188507 -0.2895902991294861 1.4707673788070679
-0.15710484981536865 -0.28959134221076965 1.4707677364349365
-0.15710420906543732 -0.28957828879356384 1.470764398574829
-0.15710420906543732 -0.28957828879356384 1.470764398574829
-0.1571042537689209 -0.2895842492580414 1.4707660675048828
-0.15710343420505524 -0.28957825899124146 1.4707646369934082
-0.15710343420505524 -0.28957825899124146 1.4707646369934082
-0.15710371732711792 -0.2895877957344055 1.4707673788070679
-0.15710368752479553 -0.2895868718624115 1.4707670211791992
-0.15710362792015076 -0.28958991169929504 1.470767855644226
-0.1571034938097 -0.289585143327713 1.4707666635513306
-0.1571035534143448 -0.28959226608276367 1.4707688093185425
-0.15710338950157166 -0.2895878553390503 1.470767617225647
-0.15710321068763733 -0.2895873486995697 1.4707674980163574
-0.15710321068763733 -0.2895873486995697 1.4707674980163574
-0.15710312128067017 -0.2895852327346802 1.4707669019699097
-0.15710295736789703 -0.2895817160606384 1.4707661867141724
-0.1571030616760254 -0.2895878255367279 1.470767855644226
-0.1571030616760254 -0.2895878255367279 1.470767855644226
-0.1571027636528015 -0.2895878851413727 1.4707684516906738
-0.1571025550365448 -0.2895921468734741 1.470770239830017
-0.15710175037384033 -0.2895909547805786 1.4707703590393066
-0.1571013629436493 -0.28958192467689514 1.4707680940628052
-0.15710102021694183 -0.2895801067352295 1.4707677364349365
-0.15709444880485535 -0.289476215839386 1.4707350730895996
-0.1570940464735031 -0.28947651386260986 1.4707353115081787
-0.15709377825260162 -0.2894761562347412 1.4707356691360474
-0.1570933610200882 -0.2895629107952118 1.4707571268081665
-0.15709303319454193 -0.28956204652786255 1.470757246017456
-0.15709222853183746 -0.28956034779548645 1.4707577228546143
-0.15709179639816284 -0.2895573079586029 1.4707573652267456
-0.15709170699119568 -0.2895564138889313 1.470757246017456
-0.15709084272384644 -0.28956153988838196 1.4707599878311157
-0.15709051489830017 -0.28956061601638794 1.4707598686218262
-0.15709009766578674 -0.2895635962486267 1.4707615375518799
-0.15709012746810913 -0.28956449031829834 1.4707618951797485
-0.15709012746810913 -0.28956449031829834 1.4707618951797485
-0.15708862245082855 -0.2895723581314087 1.4707709550857544
-0.15708862245082855 -0.2895723581314087 1.4707709550857544
-0.15708811581134796 -0.2895727753639221 1.4707722663879395
-0.15708914399147034 -0.2896076440811157 1.4707822799682617
-0.15708865225315094 -0.2895994186401367 1.4707794189453125
-0.15708792209625244 -0.28958049416542053 1.4707744121551514
-0.1570875346660614 -0.28957808017730713 1.4707741737365723
-0.157087504863739 -0.28957581520080566 1.4707738161087036
-0.1570829153060913 -0.28946879506111145 1.470747709274292
-0.15708275139331818 -0.2894805371761322 1.4707518815994263
-0.15708446502685547 -0.2895660400390625 1.4707696437835693
-0.1570839136838913 -0.2895645201206207 1.4707698822021484
-0.1570807844400406 -0.289469838142395 1.4707497358322144
-0.15708020329475403 -0.28947049379348755 1.470750093460083
-0.1570834517478943 -0.28959378600120544 1.4707982540130615
-0.15708337724208832 -0.2895914912223816 1.4707977771759033
-0.15708309412002563 -0.2895876467227936 1.4707967042922974
-0.15708304941654205 -0.28958648443222046 1.4707964658737183
-0.15708284080028534 -0.28958752751350403 1.4707969427108765
-0.15708273649215698 -0.28958621621131897 1.4707965850830078
-0.15708252787590027 -0.2895810008049011 1.470794916152954
-0.15708255767822266 -0.2895834445953369 1.4707958698272705
-0.15708234906196594 -0.2895904779434204 1.4707978963851929
-0.15708205103874207 -0.28958219289779663 1.4707956314086914
-0.157081738114357 -0.2895892560482025 1.4707976579666138
-0.15708158910274506 -0.2895947992801666 1.470799446105957
-0.1570812463760376 -0.2895869016647339 1.4707975387573242
-0.15708090364933014 -0.28958702087402344 1.4707977771759033
-0.15708027780056 -0.2895964980125427 1.4708008766174316
-0.15707968175411224 -0.2895933985710144 1.4708011150360107
-0.15707968175411224 -0.2895933985710144 1.4708011150360107
-0.15707452595233917 -0.2894929349422455 1.4707648754119873
-0.15707412362098694 -0.2894929349422455 1.470765471458435
-0.15707604587078094 -0.28959694504737854 1.4708082675933838
-0.15707604587078094 -0.28959694504737854 1.4708082675933838
-0.1570739895105362 -0.2895946204662323 1.4708088636398315
-0.15706369280815125 -0.2894681692123413 1.470767855644226
-0.15706229209899902 -0.2894744575023651 1.4707727432250977
-0.1570621132850647 -0.2894723415374756 1.4707719087600708
-0.15706175565719604 -0.2894703447818756 1.4707719087600708
-0.1570609211921692 -0.2894725501537323 1.4707738161087036
-0.15706051886081696 -0.289470911026001 1.470774531364441
-0.1570635586977005 -0.28956863284111023 1.4708019495010376
-0.15706020593643188 -0.289469450712204 1.4707744121551514
-0.15706005692481995 -0.2894735336303711 1.470776081085205
-0.1570625603199005 -0.28956153988838196 1.4708013534545898
-0.15706250071525574 -0.289569228887558 1.4708038568496704
-0.15706244111061096 -0.2895682454109192 1.4708036184310913
-0.1570609211921692 -0.2895696759223938 1.4708068370819092
-0.1570606529712677 -0.2895658314228058 1.4708062410354614
-0.15705960988998413 -0.28955748677253723 1.470806360244751
-0.15705688297748566 -0.2894873023033142 1.4707865715026855
-0.15705952048301697 -0.28957322239875793 1.470811128616333
-0.15705639123916626 -0.28948062658309937 1.4707844257354736
-0.15705639123916626 -0.28948062658309937 1.4707844257354736
-0.15705598890781403 -0.2894713580608368 1.4707821607589722
-0.1570558398962021 -0.28947463631629944 1.4707839488983154
-0.15705838799476624 -0.2895618975162506 1.470808744430542
-0.15705807507038116 -0.28956133127212524 1.4708088636398315
-0.15705128014087677 -0.2895858883857727 1.4708304405212402
-0.15704956650733948 -0.28959062695503235 1.4708360433578491
-0.15704956650733948 -0.28959062695503235 1.4708360433578491
-0.1570475995540619 -0.2895348370075226 1.4708189964294434
-0.15704697370529175 -0.2895786762237549 1.4708341360092163
-0.15704606473445892 -0.28957676887512207 1.4708341360092163
-0.1570458859205246 -0.28958097100257874 1.4708354473114014
-0.15704531967639923 -0.28957095742225647 1.4708333015441895
-0.15704497694969177 -0.28956201672554016 1.4708309173583984
-0.15704496204853058 -0.2895779013633728 1.4708367586135864
-0.15704473853111267 -0.2895767390727997 1.4708367586135864
-0.15704470872879028 -0.28958001732826233 1.470837950706482
-0.1570444405078888 -0.2895822525024414 1.4708387851715088
