ply
format ascii 1.0
element vertex 127
property float x
property float y
property float z
end_header
-0.08706632256507874 -0.19389817118644714 0.8625898361206055
-0.08706449717283249 -0.19389422237873077 0.8625909686088562
-0.0870654284954071 -0.1937970072031021 0.8625805377960205
-0.08706527948379517 -0.19379723072052002 0.8625807762145996
-0.0870644748210907 -0.19379332661628723 0.8625771403312683
-0.0870644748210907 -0.19379332661628723 0.8625771403312683
-0.08706431090831757 -0.1937977522611618 0.8625779151916504
-0.08706431090831757 -0.1937977522611618 0.8625779151916504
-0.08706328272819519 -0.19389434158802032 0.8625923991203308
-0.087064228951931 -0.1937972903251648 0.8625779747962952
-0.0870642140507698 -0.1937967836856842 0.8625779151916504
-0.08706313371658325 -0.19389608502388 0.8625929355621338
-0.08706407248973846 -0.1937987357378006 0.862578272819519
-0.08706402033567429 -0.1937948614358902 0.8625777363777161
-0.08706393092870712 -0.19379527866840363 0.8625779747962952
-0.08706393092870712 -0.19379527866840363 0.8625779747962952
-0.08706386387348175 -0.1937948614358902 0.8625779151916504
-0.08706387132406235 -0.19379323720932007 0.8625776767730713
-0.08706381916999817 -0.19379661977291107 0.8625782132148743
-0.08706381916999817 -0.19379661977291107 0.8625782132148743
-0.08706377446651459 -0.19379554688930511 0.8625780940055847
-0.08706274628639221 -0.19389407336711884 0.8625931143760681
-0.08706370741128922 -0.1937982738018036 0.8625785708427429
-0.08706263452768326 -0.19389472901821136 0.8625933527946472
-0.08706362545490265 -0.19379793107509613 0.8625786900520325
-0.08706362545490265 -0.19379793107509613 0.8625786900520325
-0.08706362545490265 -0.193795308470726 0.8625783324241638
-0.08706354349851608 -0.19379828870296478 0.862578809261322
-0.08706354349851608 -0.19379828870296478 0.862578809261322
-0.0870635062456131 -0.19379734992980957 0.8625786900520325
-0.08706348389387131 -0.1937977522611618 0.862578809261322
-0.08706348389387131 -0.1937977522611618 0.862578809261322
-0.08706346899271011 -0.19379691779613495 0.8625786900520325
-0.08706345409154892 -0.19379623234272003 0.8625786304473877
-0.08706345409154892 -0.19379623234272003 0.8625786304473877
-0.08706345409154892 -0.19379565119743347 0.8625785708427429
-0.08706346154212952 -0.19379480183124542 0.8625783920288086
-0.08706334233283997 -0.19379639625549316 0.8625787496566772
-0.08706334233283997 -0.19379639625549316 0.8625787496566772
-0.0870622992515564 -0.19389553368091583 0.8625938296318054
-0.08706225454807281 -0.19389478862285614 0.8625937700271606
-0.087063267827034 -0.19379600882530212 0.8625787496566772
-0.0870632454752922 -0.19379667937755585 0.8625789284706116
-0.08706220984458923 -0.19389618933200836 0.8625940680503845
-0.08706323057413101 -0.193794384598732 0.8625786304473877
-0.08706317842006683 -0.19379833340644836 0.8625791668891907
-0.08706320077180862 -0.19379620254039764 0.8625788688659668
-0.08706309646368027 -0.19379763305187225 0.8625792860984802
-0.08706309646368027 -0.19379647076129913 0.8625790476799011
-0.08706308901309967 -0.193795308470726 0.8625789284706116
-0.08706293255090714 -0.19379496574401855 0.8625791072845459
-0.08706288039684296 -0.19379699230194092 0.8625795245170593
-0.08706284314393997 -0.19379447400569916 0.8625792264938354
-0.08706249296665192 -0.19379708170890808 0.8625800609588623
-0.08706249296665192 -0.1937958151102066 0.8625800013542175
-0.08706249296665192 -0.1937958151102066 0.8625800013542175
-0.08706244081258774 -0.19379937648773193 0.862580418586731
-0.08706241101026535 -0.19379636645317078 0.8625800609588623
-0.087061308324337 -0.19389605522155762 0.8625950813293457
-0.08706231415271759 -0.19379588961601257 0.8625802993774414
-0.08706220239400864 -0.1937951296567917 0.8625803589820862
-0.0870610773563385 -0.19389382004737854 0.8625950217247009
-0.0870620384812355 -0.19379886984825134 0.8625809550285339
-0.08706049621105194 -0.19389702379703522 0.8625962734222412
-0.08706047385931015 -0.1938982456922531 0.8625965118408203
-0.08706048876047134 -0.19389504194259644 0.8625959753990173
-0.08706040680408478 -0.1938927173614502 0.8625956773757935
-0.08705943822860718 -0.19389551877975464 0.8625973463058472
-0.0870552510023117 -0.19389665126800537 0.8626031875610352
-0.08705511689186096 -0.19389685988426208 0.862603485584259
-0.08705487847328186 -0.19389615952968597 0.8626036643981934
-0.08705487847328186 -0.19389615952968597 0.8626036643981934
-0.0870555192232132 -0.1939202845096588 0.8626231551170349
-0.0870552659034729 -0.19392049312591553 0.8626232743263245
-0.08705534040927887 -0.1939162164926529 0.8626234531402588
-0.08705522119998932 -0.1939186304807663 0.862623393535614
-0.08705514669418335 -0.1939198225736618 0.8626234531402588
-0.08705507218837738 -0.19391925632953644 0.8626235127449036
-0.08705420792102814 -0.19383417069911957 0.8625928163528442
-0.08705499023199081 -0.19391848146915436 0.8626236319541931
-0.0870540514588356 -0.1938333660364151 0.862592875957489
-0.08705491572618484 -0.1939171552658081 0.8626238107681274
-0.08705480396747589 -0.19392022490501404 0.8626237511634827
-0.08705396205186844 -0.19383414089679718 0.8625931143760681
-0.08705396205186844 -0.19383414089679718 0.8625931143760681
-0.08705396205186844 -0.19383414089679718 0.8625931143760681
-0.08705392479896545 -0.19383364915847778 0.8625931739807129
-0.08705484867095947 -0.19391582906246185 0.8626238703727722
-0.08705469965934753 -0.19391946494579315 0.862623929977417
-0.08705465495586395 -0.1939205676317215 0.862623929977417
-0.0870547741651535 -0.19391630589962006 0.862623929977417
-0.08705468475818634 -0.19391897320747375 0.862623929977417
-0.08705468475818634 -0.19391897320747375 0.862623929977417
-0.08705468475818634 -0.1939166933298111 0.862623929977417
-0.08705440163612366 -0.19391952455043793 0.8626241683959961
-0.08705436438322067 -0.19392016530036926 0.8626242280006409
-0.08705425262451172 -0.19392050802707672 0.8626242876052856
-0.0870533213019371 -0.19383634626865387 0.862594485282898
-0.08705413341522217 -0.19391681253910065 0.8626245260238647
-0.08705320954322815 -0.19383583962917328 0.8625946044921875
-0.08705409616231918 -0.19391535222530365 0.8626245856285095
-0.08705409616231918 -0.19391535222530365 0.8626245856285095
-0.08705390244722366 -0.19391858577728271 0.8626247048377991
-0.08705391734838486 -0.1939178854227066 0.8626247048377991
-0.08705376833677292 -0.193918839097023 0.8626248240470886
-0.08705373853445053 -0.19391752779483795 0.8626248240470886
-0.08705367147922516 -0.1939169317483902 0.8626249432563782
-0.08705338835716248 -0.19391575455665588 0.862625241279602
-0.08705295622348785 -0.19391459226608276 0.8626257181167603
-0.08705264329910278 -0.19391390681266785 0.8626260161399841
-0.08704940974712372 -0.193837508559227 0.8626009821891785
-0.08704867959022522 -0.1938946396112442 0.862612783908844
-0.08704840391874313 -0.19389161467552185 0.8626127243041992
-0.0870446041226387 -0.19390656054019928 0.8626219034194946
-0.0870443806052208 -0.1939062476158142 0.8626222610473633
-0.0870443806052208 -0.1939062476158142 0.8626222610473633
-0.08704137057065964 -0.19389081001281738 0.8626255989074707
-0.08704095333814621 -0.1939055472612381 0.8626276254653931
-0.08704095333814621 -0.1939055472612381 0.8626276254653931
-0.08703973144292831 -0.1939055621623993 0.8626297116279602
-0.08703964948654175 -0.1939052939414978 0.8626298308372498
-0.08703863620758057 -0.1938939094543457 0.862631618976593
-0.08703864365816116 -0.19389092922210693 0.8626311421394348
-0.0870385393500328 -0.19389495253562927 0.8626320362091064
-0.08703593909740448 -0.193893164396286 0.8626375794410706
-0.08703593909740448 -0.19389091432094574 0.8626373410224915
-0.08703397959470749 -0.19388994574546814 0.8626415729522705
