ply
format ascii 1.0
element vertex 166
property float x
property float y
property float z
end_header
-0.258026659488678 -0.39753156900405884 2.388686418533325
-0.258026659488678 -0.39753156900405884 2.388686418533325
-0.2579863667488098 -0.3976011276245117 2.3887147903442383
-0.2579863667488098 -0.3976011276245117 2.3887147903442383
-0.25798261165618896 -0.39748984575271606 2.388683319091797
-0.25798213481903076 -0.39749041199684143 2.388683557510376
-0.2579813599586487 -0.3974871337413788 2.3886828422546387
-0.2579842209815979 -0.3975774645805359 2.3887085914611816
-0.25798341631889343 -0.39760056138038635 2.3887178897857666
-0.25798285007476807 -0.39759954810142517 2.3887176513671875
-0.25798261165618896 -0.3975982367992401 2.3887174129486084
-0.2579811215400696 -0.39759117364883423 2.3887155055999756
-0.2579804062843323 -0.39759960770606995 2.388718605041504
-0.25796791911125183 -0.39741402864456177 2.3886663913726807
-0.25797131657600403 -0.3975122272968292 2.388695478439331
-0.25796937942504883 -0.3974589705467224 2.388679265975952
-0.2579706907272339 -0.39749830961227417 2.388690948486328
-0.2579706907272339 -0.39749830961227417 2.388690948486328
-0.25797393918037415 -0.39759156107902527 2.388718843460083
-0.25797393918037415 -0.39759156107902527 2.388718843460083
-0.25796908140182495 -0.39745500683784485 2.388678550720215
-0.25796908140182495 -0.3974550664424896 2.388678550720215
-0.2579687833786011 -0.3974466323852539 2.388676166534424
-0.25796788930892944 -0.3974229395389557 2.388669013977051
-0.25796788930892944 -0.3974229395389557 2.388669013977051
-0.2579707205295563 -0.39751124382019043 2.388695001602173
-0.25796759128570557 -0.3974217474460602 2.3886687755584717
-0.25796759128570557 -0.3974217474460602 2.3886687755584717
-0.257968544960022 -0.39744940400123596 2.388676881790161
-0.25797075033187866 -0.39752107858657837 2.388698101043701
-0.25796884298324585 -0.39746707677841187 2.3886821269989014
-0.2579687237739563 -0.39746367931365967 2.388680934906006
-0.25796884298324585 -0.3974698781967163 2.3886830806732178
-0.2579679489135742 -0.3974457085132599 2.3886759281158447
-0.25796687602996826 -0.3974161744117737 2.388667345046997
-0.25796735286712646 -0.3974313735961914 2.388671875
-0.25796863436698914 -0.3974720537662506 2.388684034347534
-0.2579726278781891 -0.3975903391838074 2.388719081878662
-0.2579684555530548 -0.3974766433238983 2.3886852264404297
-0.25796690583229065 -0.39743125438690186 2.388672113418579
-0.2579672634601593 -0.3974432051181793 2.3886754512786865
-0.25796687602996826 -0.39743441343307495 2.3886730670928955
-0.2579665184020996 -0.3974320590496063 2.388672351837158
-0.25796768069267273 -0.39746683835983276 2.3886826038360596
-0.2579672336578369 -0.3974543511867523 2.388679027557373
-0.25796711444854736 -0.39745333790779114 2.388678789138794
-0.25796711444854736 -0.39745333790779114 2.388678789138794
-0.2579668462276459 -0.39744576811790466 2.388676643371582
-0.25796693563461304 -0.39745068550109863 2.3886780738830566
-0.2579666078090668 -0.39744943380355835 2.3886778354644775
-0.2579667270183563 -0.39745453000068665 2.3886795043945312
-0.2579667270183563 -0.39745453000068665 2.3886795043945312
-0.2579682469367981 -0.3975028395652771 2.3886935710906982
-0.2579663097858429 -0.3974481523036957 2.3886773586273193
-0.2579672336578369 -0.39747440814971924 2.3886849880218506
-0.2579665780067444 -0.39745819568634033 2.3886804580688477
-0.2579665780067444 -0.39745819568634033 2.3886804580688477
-0.25796589255332947 -0.39743882417678833 2.38867449760437
-0.2579711973667145 -0.39759624004364014 2.388720989227295
-0.25796762108802795 -0.3974955081939697 2.3886916637420654
-0.2579667866230011 -0.39747264981269836 2.3886847496032715
-0.25796639919281006 -0.3974618911743164 2.388681650161743
-0.25796690583229065 -0.3974781036376953 2.388686418533325
-0.2579660713672638 -0.39745357632637024 2.3886795043945312
-0.25796574354171753 -0.3974481523036957 2.3886775970458984
-0.25796470046043396 -0.3974211513996124 2.3886702060699463
-0.25796520709991455 -0.39743679761886597 2.388674736022949
-0.2579658329486847 -0.39746034145355225 2.388681411743164
-0.25796544551849365 -0.39745211601257324 2.388679027557373
-0.2579651474952698 -0.3974485397338867 2.3886780738830566
-0.25796496868133545 -0.39745238423347473 2.388679027557373
-0.2579667568206787 -0.3975040018558502 2.3886942863464355
-0.2579658031463623 -0.39748144149780273 2.3886878490448
-0.2579661011695862 -0.39750680327415466 2.38869571685791
-0.25785866379737854 -0.3972303867340088 2.3886008262634277
-0.2578583061695099 -0.3972295820713043 2.3886008262634277
-0.2578583061695099 -0.3972295820713043 2.3886008262634277
-0.2578583359718323 -0.39723119139671326 2.388601303100586
-0.25785794854164124 -0.3972320854663849 2.388601779937744
-0.25785771012306213 -0.3972252309322357 2.3886001110076904
-0.2578578591346741 -0.3972306251525879 2.388601541519165
-0.2578618824481964 -0.39736828207969666 2.3886375427246094
-0.2578618824481964 -0.39736828207969666 2.3886375427246094
-0.2578573524951935 -0.39722755551338196 2.3886005878448486
-0.2578573524951935 -0.397231787443161 2.3886022567749023
-0.25786179304122925 -0.3973751962184906 2.3886399269104004
-0.25786179304122925 -0.3973751962184906 2.3886399269104004
-0.25785723328590393 -0.39723581075668335 2.388603448867798
-0.25785690546035767 -0.3972265422344208 2.388601064682007
-0.25785690546035767 -0.3972265422344208 2.388601064682007
-0.25786256790161133 -0.3974107503890991 2.3886518478393555
-0.2578606903553009 -0.39736565947532654 2.3886361122131348
-0.25785648822784424 -0.3972274959087372 2.388601779937744
-0.2578604817390442 -0.3973636031150818 2.3886353969573975
-0.257861852645874 -0.39740246534347534 2.388648748397827
-0.25785601139068604 -0.3972223699092865 2.3886001110076904
-0.257856160402298 -0.3972345292568207 2.388604164123535
-0.257856160402298 -0.3972345292568207 2.388604164123535
-0.2578558325767517 -0.39722689986228943 2.388601541519165
-0.25786107778549194 -0.39739397168159485 2.388645887374878
-0.25786107778549194 -0.39739397168159485 2.388645887374878
-0.2578620910644531 -0.397419273853302 2.3886547088623047
-0.25785595178604126 -0.3972357213497162 2.3886046409606934
-0.25786033272743225 -0.3973824679851532 2.388641595840454
-0.25786033272743225 -0.3973824679851532 2.388641595840454
-0.25785571336746216 -0.3972330093383789 2.388603925704956
-0.25785985589027405 -0.3973742425441742 2.388638973236084
-0.2578554153442383 -0.3972245752811432 2.388601779937744
-0.25785553455352783 -0.39722976088523865 2.3886032104492188
-0.25785553455352783 -0.39722976088523865 2.3886032104492188
-0.2578554153442383 -0.3972281515598297 2.3886024951934814
-0.25785550475120544 -0.39723241329193115 2.388604164123535
-0.2578606903553009 -0.3974015712738037 2.388648509979248
-0.2578606605529785 -0.39740240573883057 2.388648748397827
-0.2578606605529785 -0.39740240573883057 2.388648748397827
-0.2578592598438263 -0.3973715603351593 2.3886382579803467
-0.25786060094833374 -0.39740830659866333 2.388650894165039
-0.25785505771636963 -0.3972313106060028 2.3886044025421143
-0.25785985589027405 -0.3973909616470337 2.3886449337005615
-0.2578586935997009 -0.39736369252204895 2.3886353969573975
-0.2578549385070801 -0.39723625779151917 2.388606071472168
-0.25785478949546814 -0.3972327709197998 2.3886051177978516
-0.25785964727401733 -0.39739251136779785 2.3886454105377197
-0.2578599154949188 -0.3974015712738037 2.388648509979248
-0.25785964727401733 -0.39739537239074707 2.388646364212036
-0.2578590512275696 -0.3973839282989502 2.3886425495147705
-0.2578582167625427 -0.39736631512641907 2.3886361122131348
-0.25785961747169495 -0.3974023759365082 2.3886489868164062
-0.25785961747169495 -0.3974023759365082 2.3886489868164062
-0.25785887241363525 -0.39738813042640686 2.388643980026245
-0.2578575611114502 -0.3973637819290161 2.3886358737945557
-0.2578585743904114 -0.39739394187927246 2.388646364212036
-0.25785741209983826 -0.39736631512641907 2.388636589050293
-0.25785908102989197 -0.3974092900753021 2.3886516094207764
-0.2578585743904114 -0.3974030613899231 2.3886494636535645
-0.25785693526268005 -0.39736631512641907 2.388637065887451
-0.2578587234020233 -0.3974122703075409 2.388657331466675
-0.25785839557647705 -0.3974137604236603 2.388658046722412
-0.2578577995300293 -0.39742422103881836 2.388662099838257
-0.25785499811172485 -0.39735475182533264 2.3886377811431885
-0.25785335898399353 -0.39734947681427 2.388627529144287
-0.25785475969314575 -0.3973042070865631 2.3886444568634033
-0.2578539550304413 -0.3973957598209381 2.3886513710021973
-0.2578534185886383 -0.3973831236362457 2.3886468410491943
-0.25785231590270996 -0.3972969353199005 2.388641834259033
-0.2578522264957428 -0.39729687571525574 2.388641357421875
-0.2578522264957428 -0.39729687571525574 2.388641357421875
-0.25785061717033386 -0.3973389267921448 2.388627767562866
-0.2578498423099518 -0.39733681082725525 2.3886280059814453
-0.2578558325767517 -0.3975633382797241 2.388784885406494
-0.25785374641418457 -0.3975564241409302 2.388787031173706
-0.25785118341445923 -0.39755910634994507 2.388788938522339
-0.25785109400749207 -0.39755499362945557 2.388788938522339
-0.2578507959842682 -0.39755651354789734 2.388789176940918
-0.2578507959842682 -0.39755651354789734 2.388789176940918
-0.2578505277633667 -0.3975575566291809 2.388789176940918
-0.2578504681587219 -0.39755895733833313 2.388789415359497
-0.25785019993782043 -0.3975556492805481 2.388789415359497
-0.2578497529029846 -0.3975521922111511 2.3887901306152344
-0.25784972310066223 -0.3975540101528168 2.388789653778076
-0.25784972310066223 -0.3975540101528168 2.388789653778076
-0.25784894824028015 -0.39755117893218994 2.3887906074523926
-0.25784894824028015 -0.39755117893218994 2.3887906074523926
-0.2578350305557251 -0.3975185751914978 2.3887298107147217
-0.25783437490463257 -0.3975194990634918 2.3887312412261963
-0.2578268051147461 -0.39751434326171875 2.3887436389923096
