ply
format ascii 1.0
element vertex 260
property float x
property float y
property float z
end_header
-0.09700115770101547 -0.21492919325828552 0.9410452246665955
-0.0970010906457901 -0.21492916345596313 0.9410451650619507
-0.09700047224760056 -0.21493208408355713 0.941046416759491
-0.09699993580579758 -0.21492919325828552 0.9410461187362671
-0.09699884057044983 -0.21497872471809387 0.9410588145256042
-0.09699884057044983 -0.21497872471809387 0.9410588145256042
-0.0969972088932991 -0.2149786502122879 0.9410597681999207
-0.09699544310569763 -0.21489620208740234 0.9410408139228821
-0.09699689596891403 -0.21497711539268494 0.9410597085952759
-0.09699500352144241 -0.21490947902202606 0.9410443305969238
-0.09699457883834839 -0.2149006724357605 0.9410424828529358
-0.0969945415854454 -0.2148994654417038 0.9410422444343567
-0.0969945415854454 -0.2148994654417038 0.9410422444343567
-0.09699448943138123 -0.21489693224430084 0.9410415887832642
-0.09699474275112152 -0.21491509675979614 0.9410459995269775
-0.09699582308530807 -0.21497541666030884 0.9410600066184998
-0.09699444472789764 -0.21490013599395752 0.9410423636436462
-0.09699447453022003 -0.214903324842453 0.9410431385040283
-0.0969957709312439 -0.21497610211372375 0.9410602450370789
-0.09699457138776779 -0.21490952372550964 0.9410446882247925
-0.09699457138776779 -0.21490952372550964 0.9410446882247925
-0.09699469804763794 -0.2149226814508438 0.9410479068756104
-0.09699483215808868 -0.2149304747581482 0.9410496950149536
-0.09699466079473495 -0.2149219810962677 0.941047728061676
-0.09699421375989914 -0.21489767730236053 0.9410420060157776
-0.09699421375989914 -0.21489767730236053 0.9410420060157776
-0.09699436277151108 -0.21490813791751862 0.9410444498062134
-0.09699424356222153 -0.21490447223186493 0.9410436153411865
-0.09699555486440659 -0.21497805416584015 0.9410608410835266
-0.09699412435293198 -0.21489930152893066 0.9410424828529358
-0.09699488431215286 -0.21494220197200775 0.9410526156425476
-0.09699449688196182 -0.21492162346839905 0.941047728061676
-0.09699483215808868 -0.21494029462337494 0.9410521984100342
-0.0969940721988678 -0.21490478515625 0.9410437941551208
-0.09699398279190063 -0.21490082144737244 0.9410428404808044
-0.09699436277151108 -0.21492257714271545 0.9410480260848999
-0.09699403494596481 -0.21490570902824402 0.9410441517829895
-0.09699398279190063 -0.21490731835365295 0.9410444498062134
-0.09699387848377228 -0.21490350365638733 0.9410435557365417
-0.09699445217847824 -0.21493415534496307 0.9410508871078491
-0.09699515253305435 -0.21497537195682526 0.941060483455658
-0.096995048224926 -0.21497344970703125 0.9410600662231445
-0.096995048224926 -0.21497344970703125 0.9410600662231445
-0.0969938412308693 -0.21490657329559326 0.9410444498062134
-0.09699408710002899 -0.21492168307304382 0.9410479664802551
-0.096994549036026 -0.21494638919830322 0.9410538673400879
-0.0969950333237648 -0.21497538685798645 0.941060483455658
-0.09699394553899765 -0.21491461992263794 0.9410462975502014
-0.09699386358261108 -0.2149108350276947 0.9410454630851746
-0.0969938188791275 -0.21490992605686188 0.9410452246665955
-0.09699369221925735 -0.21490363776683807 0.9410437345504761
-0.09699445217847824 -0.21494553983211517 0.9410538077354431
-0.0969938263297081 -0.21491298079490662 0.9410459995269775
-0.09699397534132004 -0.21492096781730652 0.9410479664802551
-0.09699385613203049 -0.2149168699979782 0.9410470128059387
-0.09699486196041107 -0.21497464179992676 0.941060483455658
-0.09699373692274094 -0.21491242945194244 0.9410459995269775
-0.09699378162622452 -0.21491596102714539 0.9410467743873596
-0.09699364751577377 -0.21491196751594543 0.9410459399223328
-0.09699373692274094 -0.21491709351539612 0.941047191619873
-0.09699373692274094 -0.21491709351539612 0.941047191619873
-0.0969935804605484 -0.21491079032421112 0.9410455226898193
-0.09699386358261108 -0.2149256020784378 0.9410491585731506
-0.09699424356222153 -0.21494776010513306 0.9410543441772461
-0.09699398279190063 -0.21493403613567352 0.941051185131073
-0.09699375927448273 -0.2149227410554886 0.9410484433174133
-0.09699364006519318 -0.21491634845733643 0.941046953201294
-0.09699364006519318 -0.21491634845733643 0.941046953201294
-0.0969935804605484 -0.21491406857967377 0.9410464763641357
-0.0969935804605484 -0.21491406857967377 0.9410464763641357
-0.09699374437332153 -0.21492356061935425 0.9410486817359924
-0.09699463099241257 -0.21497474610805511 0.9410606622695923
-0.09699387848377228 -0.2149331420660019 0.9410510659217834
-0.09699355065822601 -0.21491724252700806 0.941047191619873
-0.09699460864067078 -0.2149779200553894 0.9410614967346191
-0.09699395298957825 -0.21494199335575104 0.9410531520843506
-0.09699395298957825 -0.21494199335575104 0.9410531520843506
-0.09699356555938721 -0.21492280066013336 0.9410486221313477
-0.09699355810880661 -0.21492530405521393 0.9410492181777954
-0.09699367731809616 -0.21493294835090637 0.9410511255264282
-0.0969938337802887 -0.2149413377046585 0.9410530924797058
-0.0969938337802887 -0.2149413377046585 0.9410530924797058
-0.09699328988790512 -0.21491725742816925 0.9410473704338074
-0.0969935804605484 -0.21493345499038696 0.9410513639450073
-0.09699320793151855 -0.21491362154483795 0.9410465955734253
-0.09699343889951706 -0.21492810547351837 0.9410500526428223
-0.0969933420419693 -0.21492356061935425 0.9410490393638611
-0.0969935953617096 -0.21494042873382568 0.941053032875061
-0.09699283540248871 -0.21497705578804016 0.9410625100135803
-0.0969737246632576 -0.2148955911397934 0.9410375356674194
-0.09695806354284286 -0.21481405198574066 0.9410389065742493
-0.09695806354284286 -0.2148175984621048 0.9410396814346313
-0.0969579890370369 -0.21481241285800934 0.9410386085510254
-0.0969579890370369 -0.21481241285800934 0.9410386085510254
-0.09695785492658615 -0.21481087803840637 0.9410383701324463
-0.09695787727832794 -0.2148137241601944 0.941038966178894
-0.0969577506184578 -0.21481293439865112 0.9410389065742493
-0.09695769846439362 -0.21481406688690186 0.9410392045974731
-0.09695769101381302 -0.21481823921203613 0.9410401582717896
-0.09695753455162048 -0.21481476724147797 0.941039502620697
-0.0969574823975563 -0.21481353044509888 0.9410392642021179
-0.0969574823975563 -0.21481353044509888 0.9410392642021179
-0.09695746004581451 -0.21481238305568695 0.9410390257835388
-0.09695740789175034 -0.2148115336894989 0.9410388469696045
-0.09695737063884735 -0.21481400728225708 0.9410395622253418
-0.09695729613304138 -0.21481353044509888 0.941039502620697
-0.09695716202259064 -0.2148108333349228 0.941038966178894
-0.09695716202259064 -0.2148108333349228 0.941038966178894
-0.09695717692375183 -0.21481160819530487 0.9410391449928284
-0.09695721417665482 -0.21481473743915558 0.9410398602485657
-0.09695712476968765 -0.21481715142726898 0.9410404562950134
-0.09695711731910706 -0.2148178517818451 0.941040575504303
-0.09695711731910706 -0.2148178517818451 0.941040575504303
-0.0969570055603981 -0.21481569111347198 0.9410402178764343
-0.0969569981098175 -0.214816614985466 0.9410405158996582
-0.0969569981098175 -0.214816614985466 0.9410405158996582
-0.09695693105459213 -0.21481236815452576 0.9410395622253418
-0.09695681929588318 -0.21481026709079742 0.9410390853881836
-0.09695686399936676 -0.21481472253799438 0.9410400986671448
-0.09695684909820557 -0.21481606364250183 0.9410405158996582
-0.09695678949356079 -0.2148129642009735 0.9410398006439209
-0.09695678949356079 -0.2148129642009735 0.9410398006439209
-0.09695670008659363 -0.21481749415397644 0.9410409927368164
-0.09695659577846527 -0.21481291949748993 0.9410400390625
-0.09695661813020706 -0.2148158699274063 0.9410406947135925
-0.09695649147033691 -0.2148134708404541 0.9410402774810791
-0.09695644676685333 -0.21481089293956757 0.9410398006439209
-0.09695639461278915 -0.2148129791021347 0.9410402178764343
-0.09695639461278915 -0.2148129791021347 0.9410402178764343
-0.09695638716220856 -0.21481238305568695 0.9410402178764343
-0.09695637226104736 -0.214817613363266 0.9410414099693298
-0.09695636481046677 -0.214817613363266 0.9410414099693298
-0.0969562977552414 -0.21481390297412872 0.9410406947135925
-0.09695623070001602 -0.21481305360794067 0.9410405158996582
-0.09695617109537125 -0.21481159329414368 0.9410402178764343
-0.09695619344711304 -0.21481741964817047 0.9410415887832642
-0.0969560518860817 -0.21481359004974365 0.9410407543182373
-0.09695608913898468 -0.21481697261333466 0.9410415887832642
-0.09695605933666229 -0.21481503546237946 0.9410411715507507
-0.0969560518860817 -0.21481892466545105 0.9410423040390015
-0.09695594757795334 -0.21481551229953766 0.9410414099693298
-0.09695594757795334 -0.21481627225875854 0.9410415887832642
-0.09695591032505035 -0.21481682360172272 0.9410418272018433
-0.09695583581924438 -0.21481597423553467 0.9410416483879089
-0.09695570915937424 -0.21481622755527496 0.941041886806488
-0.09695570915937424 -0.21481622755527496 0.941041886806488
-0.09695633500814438 -0.21487833559513092 0.9410541653633118
-0.09695564955472946 -0.21481545269489288 0.9410417079925537
-0.09695559740066528 -0.2148125171661377 0.941041111946106
-0.09695557504892349 -0.21481488645076752 0.9410417675971985
-0.0969555601477623 -0.2148175984621048 0.9410423636436462
-0.09695549309253693 -0.21481376886367798 0.9410416483879089
-0.09695547819137573 -0.21481670439243317 0.9410423636436462
-0.09695547819137573 -0.21481670439243317 0.9410423636436462
-0.09695543348789215 -0.21481801569461823 0.9410426020622253
-0.0969560518860817 -0.21488124132156372 0.9410551190376282
-0.0969553142786026 -0.214814230799675 0.9410420656204224
-0.09695534408092499 -0.21481873095035553 0.9410429000854492
-0.09695867449045181 -0.21495702862739563 0.9410896897315979
-0.09695571660995483 -0.2148759961128235 0.9410540461540222
-0.09695575386285782 -0.21487842500209808 0.94105464220047
-0.09695568680763245 -0.21488243341445923 0.9410557746887207
-0.09695497155189514 -0.21481136977672577 0.9410419464111328
-0.09695550054311752 -0.2148759812116623 0.9410541653633118
-0.09695546329021454 -0.21487493813037872 0.9410538673400879
-0.09695491939783096 -0.21481402218341827 0.9410425424575806
-0.09695477783679962 -0.21481618285179138 0.9410432577133179
-0.09695761650800705 -0.21495872735977173 0.9410907030105591
-0.09695428609848022 -0.21486635506153107 0.9410516619682312
-0.09695442765951157 -0.2148723304271698 0.941055417060852
-0.09695719927549362 -0.2149585783481598 0.9410910606384277
-0.09695388376712799 -0.214864119887352 0.9410516023635864
-0.09695412218570709 -0.21487057209014893 0.9410553574562073
-0.09695369750261307 -0.2148633897304535 0.9410517811775208
-0.09695354104042053 -0.21486452221870422 0.9410521388053894
-0.09695352613925934 -0.2148638218641281 0.9410520195960999
-0.09695354104042053 -0.21486596763134003 0.9410525560379028
-0.09695330262184143 -0.2148658037185669 0.9410527944564819
-0.0969531387090683 -0.2148645520210266 0.9410527348518372
-0.09695307910442352 -0.21486298739910126 0.9410524368286133
-0.09695302695035934 -0.21486534178256989 0.9410531520843506
-0.09695302695035934 -0.21486534178256989 0.9410531520843506
-0.09695307910442352 -0.2148679792881012 0.9410538673400879
-0.096952885389328 -0.21486487984657288 0.9410532116889954
-0.09695281088352203 -0.21486444771289825 0.9410531520843506
-0.09695275872945786 -0.21486730873584747 0.9410539865493774
-0.0969557911157608 -0.21495968103408813 0.9410924315452576
-0.0969526469707489 -0.21486403048038483 0.9410533308982849
-0.0969526395201683 -0.214864581823349 0.9410534501075745
-0.09695266932249069 -0.2148669809103012 0.9410539865493774
-0.09695260971784592 -0.21486292779445648 0.9410530924797058
-0.0969524011015892 -0.21486839652061462 0.9410548210144043
-0.09695231169462204 -0.21486300230026245 0.9410534501075745
-0.09694978594779968 -0.21496887505054474 0.9411017298698425
-0.09694967418909073 -0.2149685174226761 0.9411018490791321
-0.09694967418909073 -0.2149685174226761 0.9411018490791321
-0.09694956988096237 -0.214964359998703 0.9411014318466187
-0.09694956988096237 -0.214964359998703 0.9411014318466187
-0.09694954752922058 -0.21496760845184326 0.9411018490791321
-0.096949502825737 -0.21496689319610596 0.9411017298698425
-0.0969492718577385 -0.21496647596359253 0.9411019682884216
-0.0969492495059967 -0.2149687260389328 0.9411023259162903
-0.0969492495059967 -0.2149687260389328 0.9411023259162903
-0.09694922715425491 -0.2149687260389328 0.9411023259162903
-0.09694917500019073 -0.21496449410915375 0.9411019086837769
-0.09694907814264297 -0.21496553719043732 0.9411020874977112
-0.09694904834032059 -0.21496647596359253 0.9411023259162903
-0.09694904834032059 -0.21496647596359253 0.9411023259162903
-0.09694904834032059 -0.21496708691120148 0.9411023855209351
-0.09694904834032059 -0.21496708691120148 0.9411023855209351
-0.096949003636837 -0.21496321260929108 0.9411019086837769
-0.09694892913103104 -0.21496766805648804 0.9411025643348694
-0.09694893658161163 -0.21495984494686127 0.941101610660553
-0.09694886207580566 -0.21496173739433289 0.9411019682884216
-0.09694882482290268 -0.21496087312698364 0.9411019682884216
-0.09694882482290268 -0.21496087312698364 0.9411019682884216
-0.09694875776767731 -0.21496613323688507 0.9411026239395142
-0.09694875776767731 -0.21496613323688507 0.9411026239395142
-0.09694869816303253 -0.21496708691120148 0.9411028027534485
-0.09694866091012955 -0.21496225893497467 0.9411022067070007
-0.09694864600896835 -0.21496789157390594 0.9411029815673828
-0.09694854170084 -0.2149624526500702 0.9411024451255798
-0.09694854170084 -0.21496039628982544 0.9411022067070007
-0.09694851189851761 -0.21496829390525818 0.9411032199859619
-0.09694851189851761 -0.21496190130710602 0.9411024451255798
-0.09694837033748627 -0.21496586501598358 0.9411030411720276
-0.09694834798574448 -0.21496082842350006 0.9411025047302246
-0.09694820642471313 -0.21496497094631195 0.9411031603813171
-0.09694818407297134 -0.21496225893497467 0.9411028027534485
-0.09694816917181015 -0.2149657905101776 0.9411032795906067
-0.09694807976484299 -0.214959517121315 0.9411026835441589
-0.09694807231426239 -0.21495914459228516 0.9411026835441589
-0.09694802016019821 -0.21496610343456268 0.9411035180091858
-0.09694793075323105 -0.21495988965034485 0.941102921962738
-0.09694772958755493 -0.21495741605758667 0.9411030411720276
-0.09694772958755493 -0.21495741605758667 0.9411030411720276
-0.09694764763116837 -0.2149622142314911 0.9411033987998962
-0.09694767743349075 -0.21495814621448517 0.9411031603813171
-0.096947580575943 -0.21495598554611206 0.9411032199859619
-0.09694750607013702 -0.21496336162090302 0.9411036968231201
-0.0969475507736206 -0.21495750546455383 0.9411033391952515
-0.09694734215736389 -0.21496202051639557 0.9411036968231201
-0.09694734960794449 -0.2149602472782135 0.9411035776138306
-0.0969473198056221 -0.21495790779590607 0.9411033987998962
-0.09694729745388031 -0.21495628356933594 0.9411035180091858
-0.09694729745388031 -0.21495655179023743 0.941103458404541
-0.09694719314575195 -0.21496069431304932 0.9411038160324097
-0.09694695472717285 -0.2149590253829956 0.9411039352416992
-0.09694693982601166 -0.21495622396469116 0.9411038160324097
-0.09694693982601166 -0.21495622396469116 0.9411038160324097
-0.09694685786962509 -0.21495980024337769 0.9411041736602783
-0.09694655984640121 -0.21495722234249115 0.9411042928695679
-0.09694652259349823 -0.2149566113948822 0.9411043524742126
-0.09694652259349823 -0.2149566113948822 0.9411043524742126
-0.09694650769233704 -0.21495531499385834 0.9411043524742126
-0.09694631397724152 -0.21495653688907623 0.9411045908927917
-0.09694618731737137 -0.2149556577205658 0.9411047101020813
-0.09694599360227585 -0.2149549126625061 0.9411048889160156
-0.09694597125053406 -0.21495406329631805 0.9411050081253052
-0.09691958129405975 -0.21498143672943115 0.9411557912826538
