ply
format ascii 1.0
element vertex 180
property float x
property float y
property float z
end_header
-0.14589665830135345 -0.26298433542251587 1.367098331451416
-0.14589659869670868 -0.2629839777946472 1.3670979738235474
-0.14589273929595947 -0.2630801796913147 1.3671258687973022
-0.14589273929595947 -0.2630827724933624 1.3671265840530396
-0.14589262008666992 -0.2631053030490875 1.367132544517517
-0.14589208364486694 -0.26308944821357727 1.3671284914016724
-0.14589208364486694 -0.26308944821357727 1.3671284914016724
-0.14589323103427887 -0.26313313841819763 1.3671393394470215
-0.14589323103427887 -0.26313313841819763 1.3671393394470215
-0.145891934633255 -0.2630859315395355 1.3671278953552246
-0.14589248597621918 -0.2631077468395233 1.3671331405639648
-0.14589248597621918 -0.2631077766418457 1.3671331405639648
-0.14589248597621918 -0.2631077766418457 1.3671331405639648
-0.14589190483093262 -0.2630886137485504 1.3671284914016724
-0.14589190483093262 -0.2630886137485504 1.3671284914016724
-0.14589281380176544 -0.2631227672100067 1.367136836051941
-0.14589281380176544 -0.2631227672100067 1.367136836051941
-0.14589212834835052 -0.26310038566589355 1.3671314716339111
-0.14589212834835052 -0.26310038566589355 1.3671314716339111
-0.14589175581932068 -0.2630879282951355 1.3671284914016724
-0.14589175581932068 -0.2630879282951355 1.3671284914016724
-0.14589186012744904 -0.26309216022491455 1.3671293258666992
-0.14589306712150574 -0.2631392776966095 1.3671410083770752
-0.14589257538318634 -0.2631209194660187 1.3671365976333618
-0.14589257538318634 -0.2631209194660187 1.3671365976333618
-0.14589212834835052 -0.2631075084209442 1.3671332597732544
-0.14589232206344604 -0.2631148099899292 1.3671350479125977
-0.14589224755764008 -0.2631126940250397 1.36713445186615
-0.14589230716228485 -0.26311638951301575 1.3671355247497559
-0.14589188992977142 -0.26310205459594727 1.3671320676803589
-0.14589136838912964 -0.263082891702652 1.3671274185180664
-0.14589263498783112 -0.26313063502311707 1.367139220237732
-0.14589136838912964 -0.26308467984199524 1.3671276569366455
-0.14589270949363708 -0.2631341218948364 1.3671400547027588
-0.14589159190654755 -0.2630936801433563 1.367129921913147
-0.1458921581506729 -0.26311764121055603 1.3671358823776245
-0.14589256048202515 -0.2631330192089081 1.3671395778656006
-0.1458912193775177 -0.2630857527256012 1.3671280145645142
-0.14589150249958038 -0.26310059428215027 1.3671318292617798
-0.14589129388332367 -0.2630953788757324 1.3671306371688843
-0.14589226245880127 -0.26313111186027527 1.367139458656311
-0.14589223265647888 -0.2631310522556305 1.367139458656311
-0.14589130878448486 -0.26309746503829956 1.367130994796753
-0.14589248597621918 -0.2631419003009796 1.3671420812606812
-0.14589110016822815 -0.26309409737586975 1.3671303987503052
-0.1458914428949356 -0.26310718059539795 1.367133617401123
-0.1458912342786789 -0.26310211420059204 1.367132306098938
-0.14589159190654755 -0.2631155848503113 1.367135763168335
-0.14589129388332367 -0.26310503482818604 1.3671331405639648
-0.14589115977287292 -0.2631009519100189 1.3671321868896484
-0.14589133858680725 -0.2631101608276367 1.3671343326568604
-0.14589133858680725 -0.2631101608276367 1.3671343326568604
-0.14589188992977142 -0.26313289999961853 1.3671399354934692
-0.14589157700538635 -0.26312175393104553 1.3671373128890991
-0.14589112997055054 -0.26310431957244873 1.3671330213546753
-0.14589209854602814 -0.26314347982406616 1.3671427965164185
-0.14589177072048187 -0.263131707906723 1.3671398162841797
-0.1458909660577774 -0.2631036341190338 1.3671330213546753
-0.14589138329029083 -0.26311907172203064 1.3671367168426514
-0.14589159190654755 -0.2631281912326813 1.3671391010284424
-0.14589105546474457 -0.2631094455718994 1.3671343326568604
-0.1458919197320938 -0.26314255595207214 1.3671425580978394
-0.14589092135429382 -0.26310646533966064 1.367133617401123
-0.1458931416273117 -0.26319068670272827 1.3671542406082153
-0.14589150249958038 -0.2631314992904663 1.3671398162841797
-0.14589141309261322 -0.26312869787216187 1.367139220237732
-0.14589110016822815 -0.2631179988384247 1.3671364784240723
-0.14589180052280426 -0.26314330101013184 1.3671427965164185
-0.14589093625545502 -0.2631116509437561 1.3671350479125977
-0.14589117467403412 -0.2631213366985321 1.3671374320983887
-0.14589089155197144 -0.26311370730400085 1.3671355247497559
-0.14589062333106995 -0.26310354471206665 1.3671331405639648
-0.14589160680770874 -0.2631414234638214 1.3671424388885498
-0.14589090645313263 -0.263115793466568 1.3671361207962036
-0.14589133858680725 -0.26313209533691406 1.3671400547027588
-0.14589133858680725 -0.26313209533691406 1.3671400547027588
-0.14589138329029083 -0.26313671469688416 1.3671412467956543
-0.14589086174964905 -0.26311826705932617 1.3671367168426514
-0.14589150249958038 -0.2631419599056244 1.367142677307129
-0.14589062333106995 -0.2631107568740845 1.3671350479125977
-0.14589042961597443 -0.2631058692932129 1.3671337366104126
-0.14589042961597443 -0.2631058692932129 1.3671337366104126
-0.14589089155197144 -0.26312288641929626 1.3671379089355469
-0.1458909958600998 -0.26313653588294983 1.3671413660049438
-0.1458907276391983 -0.26314640045166016 1.3671443462371826
-0.1458316147327423 -0.2629759609699249 1.3671066761016846
-0.14583125710487366 -0.2629745304584503 1.3671067953109741
-0.1458311676979065 -0.2629704177379608 1.3671059608459473
-0.1458309441804886 -0.2629743218421936 1.3671070337295532
-0.14583085477352142 -0.2629767656326294 1.3671077489852905
-0.14583072066307068 -0.2629711627960205 1.3671064376831055
-0.14583072066307068 -0.2629711627960205 1.3671064376831055
-0.14583048224449158 -0.2629717290401459 1.3671069145202637
-0.14583033323287964 -0.26297062635421753 1.3671066761016846
-0.14583024382591248 -0.26296865940093994 1.3671064376831055
-0.14583024382591248 -0.26297587156295776 1.3671081066131592
-0.1458299309015274 -0.26297301054000854 1.3671077489852905
-0.1458299309015274 -0.26297301054000854 1.3671077489852905
-0.14583194255828857 -0.2630755603313446 1.3671280145645142
-0.1458319127559662 -0.2630760371685028 1.3671281337738037
-0.14583128690719604 -0.26305779814720154 1.3671232461929321
-0.1458318531513214 -0.26307955384254456 1.3671290874481201
-0.14583151042461395 -0.2630692720413208 1.36712646484375
-0.1458316594362259 -0.2630750834941864 1.3671280145645142
-0.1458318829536438 -0.2630872130393982 1.3671313524246216
-0.1458313912153244 -0.26307016611099243 1.367126703262329
-0.14583148062229156 -0.2630755305290222 1.3671281337738037
-0.14583109319210052 -0.2630650997161865 1.3671252727508545
-0.14583106338977814 -0.26306426525115967 1.3671252727508545
-0.14583073556423187 -0.26305466890335083 1.3671226501464844
-0.14583098888397217 -0.2630675435066223 1.3671261072158813
-0.14583083987236023 -0.2630653381347656 1.3671255111694336
-0.14583076536655426 -0.2630709707736969 1.3671270608901978
-0.145830899477005 -0.2630760073661804 1.3671284914016724
-0.14583027362823486 -0.26305463910102844 1.367122769355774
-0.1458304226398468 -0.26306331157684326 1.367125153541565
-0.14583002030849457 -0.26305463910102844 1.367123007774353
-0.14583103358745575 -0.26308876276016235 1.36713445186615
-0.1458357870578766 -0.2631813883781433 1.367191195487976
-0.14582820236682892 -0.263072669506073 1.3671305179595947
-0.14582759141921997 -0.2630525529384613 1.3671250343322754
-0.14582976698875427 -0.26318252086639404 1.3671990633010864
-0.14582957327365875 -0.2631802260875702 1.367199182510376
-0.145829439163208 -0.26318198442459106 1.3671993017196655
-0.14582927525043488 -0.2631784975528717 1.3671995401382446
-0.1458291858434677 -0.2631773054599762 1.367199420928955
-0.1458291858434677 -0.2631773054599762 1.367199420928955
-0.1458292007446289 -0.2631831467151642 1.3671997785568237
-0.1458292007446289 -0.2631831467151642 1.3671997785568237
-0.14582906663417816 -0.26318103075027466 1.3671997785568237
-0.14582906663417816 -0.26318103075027466 1.3671997785568237
-0.14582905173301697 -0.2631767690181732 1.3671996593475342
-0.14582903683185577 -0.2631818652153015 1.3671997785568237
-0.14582903683185577 -0.2631818652153015 1.3671997785568237
-0.14582888782024384 -0.263182669878006 1.3672001361846924
-0.14582864940166473 -0.26318061351776123 1.3672001361846924
-0.14582864940166473 -0.26318061351776123 1.3672001361846924
-0.14582857489585876 -0.2631818652153015 1.367200255393982
-0.1458284854888916 -0.26318293809890747 1.367200493812561
-0.14582841098308563 -0.26317304372787476 1.3672000169754028
-0.14582838118076324 -0.2631758153438568 1.3672001361846924
-0.14582836627960205 -0.2631750702857971 1.367200255393982
-0.14582829177379608 -0.26317736506462097 1.3672003746032715
-0.14582829177379608 -0.26317736506462097 1.3672003746032715
-0.1458282619714737 -0.26318350434303284 1.3672007322311401
-0.14582812786102295 -0.2631739377975464 1.367200493812561
-0.14582812786102295 -0.26318028569221497 1.3672007322311401
-0.14582793414592743 -0.26317912340164185 1.3672009706497192
-0.14582787454128265 -0.2631755471229553 1.3672007322311401
-0.14582787454128265 -0.2631755471229553 1.3672007322311401
-0.14582780003547668 -0.2631801664829254 1.3672009706497192
-0.14582780003547668 -0.2631719708442688 1.3672008514404297
-0.14582759141921997 -0.2631784677505493 1.3672010898590088
-0.14582759141921997 -0.263172447681427 1.3672010898590088
-0.1458275318145752 -0.26317739486694336 1.3672010898590088
-0.1458275318145752 -0.26317739486694336 1.3672010898590088
-0.14582723379135132 -0.26317018270492554 1.367201566696167
-0.14582711458206177 -0.26317551732063293 1.3672014474868774
-0.14582674205303192 -0.26316988468170166 1.3672019243240356
-0.14582669734954834 -0.2631729543209076 1.367201805114746
-0.14582666754722595 -0.2631753087043762 1.3672019243240356
-0.14582647383213043 -0.26317352056503296 1.3672021627426147
-0.1458263397216797 -0.26316970586776733 1.3672022819519043
-0.14582623541355133 -0.26316770911216736 1.367202639579773
-0.14582599699497223 -0.26317235827445984 1.3672024011611938
-0.14582565426826477 -0.2631690502166748 1.3672031164169312
-0.14582562446594238 -0.263166606426239 1.3672033548355103
-0.14582529664039612 -0.2631681561470032 1.3672034740447998
-0.14582523703575134 -0.26316899061203003 1.3672033548355103
-0.14582513272762299 -0.26316702365875244 1.367203712463379
-0.14582490921020508 -0.2631649374961853 1.367204189300537
-0.14582015573978424 -0.26314467191696167 1.3671650886535645
-0.14582015573978424 -0.26314467191696167 1.3671650886535645
-0.1458178460597992 -0.2630466818809509 1.367199182510376
-0.14581221342086792 -0.26314252614974976 1.3671809434890747
-0.14581194519996643 -0.2631435990333557 1.367181658744812
-0.14581097662448883 -0.2631376087665558 1.3671818971633911
-0.1458108127117157 -0.26314085721969604 1.3671835660934448
-0.14580292999744415 -0.26313382387161255 1.3672020435333252
-0.14579981565475464 -0.26313549280166626 1.3672109842300415
